-3.239367 0.2751245 7.234078
-3.229643 0.2774251 7.245265
-3.215384 0.2798923 7.254353
-3.212139 0.2817928 7.267232
-3.203387 0.2839767 7.278215
-3.197011 0.2861271 7.290734
-3.188259 0.288311 7.301717
-3.189549 0.2900447 7.316695
-3.178422 0.2922619 7.326143
-3.165351 0.2947125 7.335999
-3.146557 0.2973466 7.342988
-3.145472 0.2991136 7.356431
-3.133373 0.3014475 7.366083
-3.117926 0.3039314 7.374403
-3.113709 0.3059486 7.387486
-3.110465 0.307849 7.400365
-3.092643 0.3103663 7.40715
-3.080543 0.3127002 7.416802
-1.480162 -0.4402493 0.2281689
-1.480155 -0.4379821 0.246468
-1.474422 -0.434398 0.2710502
-1.461775 -0.4294802 0.3011478
-1.469223 -0.4288634 0.3117852
-1.490067 -0.431114 0.309449
-1.50767 -0.4325978 0.3108416
-1.522572 -0.4336314 0.313817
-1.541903 -0.4354486 0.3138309
-1.546866 -0.4342816 0.3270221
-1.543402 -0.4313477 0.3480789
-1.542423 -0.4289638 0.366582
-1.54166 -0.4264799 0.3860563
-1.53798 -0.4236459 0.4061418
-1.540458 -0.4219289 0.421887
-1.545421 -0.420762 0.4350783
-1.553625 -0.4203619 0.4445405
-1.567015 -0.4209622 0.449866
-1.585374 -0.4226626 0.4500838
-1.602977 -0.4241464 0.4514764
-1.623065 -0.4261803 0.4503152
-1.642396 -0.4279974 0.450329
-1.659998 -0.4294811 0.451722
-1.676088 -0.4305314 0.4554649
-1.691207 -0.4314651 0.4594115
-1.705353 -0.432282 0.463562
-1.717229 -0.4324487 0.4712378
-1.725433 -0.4320487 0.4807001
-1.732881 -0.4314319 0.4913372
-1.739572 -0.4305984 0.5031497
-1.745291 -0.4296483 0.5151658
-1.749282 -0.4283647 0.5285608
-1.752516 -0.4268644 0.5431309
-1.756507 -0.4255808 0.5565259
-1.757257 -0.4235304 0.5736499
-1.75779 -0.4215799 0.5898027
-1.756811 -0.419196 0.6083058
-1.75983 -0.4177957 0.6219046
-1.763064 -0.4162954 0.6364747
-1.77224 -0.416012 0.6457331
-1.781201 -0.4158288 0.6540201
-1.794806 -0.4163289 0.6603171
-1.804739 -0.4162623 0.6684003
-1.824285 -0.4179794 0.6693856
-1.84016 -0.4191298 0.6721572
-1.858735 -0.4207302 0.6733462
-1.886924 -0.4241144 0.6674372
-1.920298 -0.4284989 0.6573915
-1.944059 -0.4310996 0.6544437
-1.971276 -0.4343671 0.6487384
-1.99698 -0.4372011 0.6453834
-2.016527 -0.4389183 0.6463685
-2.030889 -0.4396352 0.6514904
-2.046222 -0.4404688 0.6564084
-2.05637 -0.4403021 0.6654633
-2.06209 -0.4393519 0.6774793
-2.070509 -0.4388519 0.6879127
-2.076228 -0.4379017 0.6999289
-2.078491 -0.4362847 0.7147028
-2.079997 -0.434451 0.7306519
-2.078802 -0.4321671 0.7481834
-2.073394 -0.4289997 0.7696479
-2.068527 -0.4261491 0.7889658
-2.061391 -0.4226483 0.8118092
-2.055767 -0.4195809 0.8323023
-2.051872 -0.4168469 0.8514165
-2.051434 -0.4147798 0.8677729
-2.052724 -0.4130462 0.8827504
-2.057687 -0.4118792 0.8959419
-2.069348 -0.412146 0.9026462
-2.081224 -0.4123128 0.910322
-2.09483 -0.412813 0.9166189
-2.109191 -0.4135299 0.9217408
-2.127981 -0.4150303 0.9239011
-2.142559 -0.4156471 0.9299943
-2.159621 -0.4168142 0.9335334
-2.175711 -0.4178645 0.9372764
-2.196445 -0.4195983 0.9390292
-2.211779 -0.4204319 0.9439474
-2.234998 -0.4227158 0.9431462
-2.26189 -0.4255666 0.9405587
-2.293967 -0.4294176 0.9338345
-2.319887 -0.4321516 0.9314508
-2.348508 -0.4353358 0.9274843
-2.366758 -0.4365195 0.9317911
-2.379391 -0.436903 0.9382918
-2.387054 -0.4361862 0.9499003
-2.393745 -0.4353527 0.9617127
-2.402921 -0.4350693 0.9709712
-2.416742 -0.4354695 0.9782395
-2.428618 -0.4356362 0.9859153
-2.442439 -0.4360364 0.9931836
-2.457989 -0.4367699 0.999073
-2.469865 -0.4369367 1.006749
-2.480985 -0.4368868 1.0156
-2.492862 -0.4370536 1.023275
-2.503226 -0.4367869 1.033301
-2.508945 -0.4358366 1.045318
-2.521794 -0.4361201 1.05279
-2.537343 -0.4368537 1.058679
-2.549435 -0.4369205 1.067326
-2.558827 -0.4365371 1.077556
-2.570704 -0.4367038 1.085232
-2.578367 -0.4359871 1.09684
-2.580629 -0.43437 1.111614
-2.592506 -0.4345368 1.11929
-2.600925 -0.4340367 1.129724
-2.61669 -0.4346702 1.136584
-2.62511 -0.4341702 1.147018
-2.64336 -0.4353539 1.151325
-2.653723 -0.4350872 1.16135
-2.662899 -0.4348038 1.170609
-2.660733 -0.4324033 1.188344
0.8748768 0.1712488 3.40073
0.8762836 0.172299 3.408141
0.8752055 0.1727991 3.412998
0.8748839 0.173516 3.419029
0.8738058 0.1740161 3.423886
0.873484 0.1747329 3.429918
0.8768348 0.1760165 3.437736
0.880942 0.1775168 3.446729
0.885265 0.1789172 3.454751
0.8876438 0.1800841 3.462366
0.8902381 0.181151 3.469009
0.8899166 0.1818678 3.475041
0.8878663 0.1822512 3.479694
0.8867881 0.1827513 3.48455
0.8827941 0.1829014 3.488796
0.8799875 0.1830681 3.492274
0.8769652 0.1833348 3.496723
0.8731865 0.1833847 3.499997
0.8691925 0.1835348 3.504242
0.8661702 0.1838015 3.508692
0.8633636 0.1839682 3.512169
0.8593693 0.1841182 3.516415
0.8555907 0.1841682 3.519689
0.8518122 0.1842182 3.522963
0.847818 0.1843682 3.527208
0.8440394 0.1844182 3.530483
0.8410171 0.1846849 3.534932
0.8362665 0.1846182 3.538002
0.8332442 0.1848849 3.542451
0.8302221 0.1851516 3.5469
0.8264435 0.1852016 3.550174
0.8224493 0.1853516 3.55442
0.8196426 0.1855183 3.557898
0.814892 0.1854516 3.560968
0.8091694 0.1852682 3.563834
0.8051752 0.1854182 3.56808
0.8004243 0.1853515 3.57115
0.7956737 0.1852848 3.574221
0.7916794 0.1854348 3.578466
0.7886574 0.1857015 3.582915
0.7829346 0.1855181 3.585782
0.7801282 0.1856848 3.58926
0.7724612 0.185268 3.591719
0.7694392 0.1855347 3.596168
0.76296 0.1851346 3.597859
0.7606943 0.185618 3.603483
0.7532431 0.1851012 3.604971
0.7511928 0.1854846 3.609624
0.7471986 0.1856346 3.61387
0.7441765 0.1859013 3.618319
0.7411543 0.186168 3.622768
0.7373756 0.186218 3.626042
0.732625 0.1861513 3.629112
0.7239863 0.1856179 3.631368
0.7182635 0.1854344 3.634234
0.7105967 0.1850177 3.636693
0.7058461 0.184951 3.639764
0.7008797 0.1849843 3.643805
0.6978576 0.185251 3.648254
0.694079 0.185301 3.651528
0.6937572 0.1860178 3.65756
0.6917071 0.1864012 3.662213
0.690629 0.1869013 3.66707
0.6883633 0.1873847 3.672694
0.685341 0.1876514 3.677143
0.6815624 0.1877014 3.680417
0.6785403 0.1879681 3.684867
0.675518 0.1882349 3.689316
0.6734679 0.1886183 3.693969
0.6685015 0.1886516 3.69801
0.6645072 0.1888016 3.702256
0.6587847 0.1886182 3.705122
0.6501459 0.1880847 3.707378
0.6471236 0.1883514 3.711827
0.6431294 0.1885014 3.716072
0.6393508 0.1885514 3.719346
0.6353565 0.1887014 3.723592
0.6313623 0.1888514 3.727837
0.6246675 0.1885513 3.7305
0.6177573 0.1883513 3.734134
0.6110625 0.1880512 3.736797
0.5987511 0.1869509 3.737266
-0.06453751 0.2375087 4.649328
-0.05881137 0.2388256 4.655611
-0.05697334 0.2396758 4.661079
-0.06258644 0.2400092 4.668035
-0.07813556 0.2392757 4.673924
-0.09660082 0.238192 4.679202
-0.1477738 0.2350623 4.684637
-0.1877301 0.2320281 4.690493
-0.207383 0.2309278 4.696538
-0.2200162 0.2305443 4.703039
-0.2377249 0.2296774 4.709493
-0.2481983 0.2294273 4.715429
-0.2567275 0.2294105 4.721774
-0.2642848 0.2295105 4.728322
-0.2667661 0.230094 4.734918
-0.2673035 0.2309108 4.74192
-0.2729166 0.2312442 4.748877
-0.2783143 0.2314775 4.75486
-0.2819833 0.2320443 4.762224
-0.2946165 0.2316608 4.768724
-0.3053053 0.2315108 4.775633
-0.3148067 0.2313773 4.781773
-0.3175037 0.2320608 4.78934
-0.3229011 0.2322942 4.795325
-0.3265703 0.232861 4.802688
-0.3300236 0.2333277 4.80908
-0.3274292 0.2343946 4.815723
-0.3340145 0.2346113 4.822475
-0.3376834 0.2351781 4.829838
-0.3341171 0.2363617 4.836685
-0.3365984 0.2369451 4.84328
-0.3431837 0.2371618 4.850032
-0.3427489 0.2380954 4.857239
-0.348362 0.2384287 4.864195
-0.3549473 0.2386454 4.870947
-0.3584006 0.2391122 4.877339
-0.3642296 0.2395456 4.885266
-0.3635791 0.2403791 4.891501
-0.3672483 0.2409458 4.898864
-0.3656259 0.2418961 4.905304
-0.3671352 0.2425962 4.912103
-0.3686446 0.2432964 4.918902
-0.3713415 0.2439798 4.92647
-0.3675593 0.2450634 4.932345
-0.3690687 0.2457636 4.939145
-0.3676621 0.2468138 4.946555
-0.3650675 0.2478807 4.953198
-0.3593414 0.2491977 4.959481
-0.3557751 0.2503813 4.966328
-0.3541526 0.2513315 4.972767
-0.3505861 0.2525151 4.979614
-0.3458319 0.2537154 4.985693
-0.336974 0.2552825 4.991617
-3.900352 0.1026955 6.442103
-3.882204 0.1056295 6.452007
-3.873884 0.1080134 6.464932
-3.865563 0.1103973 6.477859
-3.859187 0.1125478 6.490377
-3.843199 0.1153485 6.500844
-3.843518 0.1171989 6.516026
-3.83185 0.1197329 6.527621
-3.824501 0.122 6.540343
-3.811645 0.1245507 6.55117
-3.806457 0.1266845 6.564456
-3.720602 0.1381329 6.599838
-3.725116 0.1406046 6.615053
-3.731914 0.1420549 6.631926
-3.713458 0.1439008 6.64098
-3.691964 0.1469849 6.649552
-3.59441 0.1670064 6.737093
-3.605527 0.16819 6.755094
-3.617616 0.1692568 6.77289
-3.624413 0.1707071 6.789763
-3.616849 0.1728743 6.801514
-3.603993 0.1754249 6.812341
-3.596429 0.1775921 6.824092
-3.578066 0.1804261 6.833025
-3.565211 0.1829767 6.843852
-3.554299 0.185294 6.854271
-3.544791 0.1876945 6.86643
-3.53172 0.1901451 6.876286
-3.526531 0.1922789 6.889572
-3.513459 0.1947296 6.899427
-3.509243 0.1967467 6.91251
-3.498547 0.199164 6.923901
-3.484288 0.2016312 6.932989
-3.476939 0.2038984 6.945712
-3.466028 0.2062157 6.956131
-3.452956 0.2086663 6.965987
-3.44874 0.2106834 6.979069
-3.438044 0.2131006 6.99046
-3.430479 0.2152678 7.002211
-3.430582 0.2170182 7.016421
-3.429713 0.2188853 7.030835
-3.422149 0.2210524 7.042586
-3.413612 0.2233363 7.054541
-3.404861 0.2255201 7.065524
-3.391789 0.2279708 7.07538
-3.382065 0.2302713 7.086567
-3.367806 0.2327386 7.095655
-3.288294 0.2492092 7.168233
-3.282889 0.2512431 7.180548
-3.278672 0.2532602 7.19363
-3.271109 0.2554273 7.205381
-3.255662 0.2579113 7.213702
-3.251445 0.2599284 7.226784
-3.247228 0.2619456 7.239867
-3.229406 0.2644629 7.246653
-3.216335 0.2669135 7.256508
-3.210931 0.2689472 7.268823
-3.205526 0.270981 7.281137
-3.197962 0.2731482 7.292889
-3.192558 0.275182 7.305203
-3.189313 0.2770825 7.318082
-3.176242 0.2795331 7.327938
-3.15842 0.2820504 7.334723
-3.145348 0.284501 7.34458
-3.138756 0.2865515 7.356127
-3.132164 0.2886019 7.367674
-3.11553 0.2911026 7.375227
-3.117036 0.2929363 7.391176
-3.107096 0.2951368 7.401392
-3.090462 0.2976374 7.408945
-3.0748 0.3000214 7.416294
-3.0332 0.3108073 7.471776
-3.022073 0.3130245 7.481224
-1.484017 -0.453207 0.2245294
-1.483253 -0.4507231 0.2440038
-1.475791 -0.4468056 0.2699648
-1.463901 -0.4421045 0.2988874
-1.468863 -0.4409375 0.3120788
-1.487223 -0.442638 0.3122964
-1.504826 -0.4441218 0.313689
-1.519944 -0.4450554 0.3176359
-1.538303 -0.4467559 0.3178535
-1.544022 -0.4458056 0.3298697
-1.54153 -0.4429884 0.3507228
-1.54228 -0.4409379 0.3678468
-1.540545 -0.4383374 0.3875249
-1.536108 -0.4352866 0.4087856
-1.541071 -0.4341198 0.4219768
-1.54679 -0.4331696 0.433993
-1.554238 -0.4325528 0.4446303
-1.566655 -0.4330363 0.4501596
-1.58523 -0.4346367 0.4513487
-1.602833 -0.4361205 0.4527413
-1.622921 -0.4381544 0.4515801
-1.64128 -0.4398549 0.4517977
-1.658126 -0.4411218 0.4543656
-1.674973 -0.4423889 0.4569336
-1.689119 -0.4432058 0.461084
-1.704237 -0.4441394 0.4650306
-1.717626 -0.4447396 0.4703564
-1.725289 -0.4440228 0.481965
-1.731009 -0.4430726 0.4939811
-1.740185 -0.4427893 0.5032395
-1.744176 -0.4415057 0.5166344
-1.748166 -0.4402221 0.5300294
-1.753129 -0.4390552 0.5432208
-1.758092 -0.4378883 0.556412
-1.756141 -0.4353878 0.5751185
-1.759375 -0.4338875 0.5896888
-1.758181 -0.4316036 0.6072204
-1.762171 -0.43032 0.6206153
-1.765406 -0.4288197 0.6351855
-1.774582 -0.4285363 0.6444439
-1.783542 -0.428353 0.6527309
-1.79369 -0.4281863 0.6617858
-1.80438 -0.4283365 0.6686938
-1.822198 -0.4297202 0.6710579
-1.839044 -0.4309872 0.6736258
-1.856863 -0.4323709 0.67599
-1.885808 -0.4359718 0.6689058
-1.918211 -0.4402396 0.6590639
-1.942943 -0.442957 0.6559124
-1.968432 -0.4458911 0.6515861
-1.996621 -0.4492753 0.645677
-2.01359 -0.4514304 0.6493385
-2.028924 -0.452264 0.6542565
-2.042529 -0.4527642 0.6605535
-2.052461 -0.4526975 0.6686368
-2.056668 -0.4513139 0.683003
-2.066816 -0.4511473 0.6920578
-2.072535 -0.4501971 0.704074
-2.077282 -0.4491302 0.7162939
-2.078032 -0.4470798 0.7334179
-2.078566 -0.4451293 0.7495707
-2.072942 -0.442062 0.7700638
-2.068383 -0.4381232 0.7902306
-2.06276 -0.4350559 0.8107237
-2.05638 -0.4317718 0.8323919
-2.051513 -0.4289211 0.85171
-2.052047 -0.4269707 0.8678628
-2.053337 -0.425237 0.8828403
-2.0583 -0.4240701 0.8960315
-2.068232 -0.4240034 0.9041148
-2.080865 -0.4243869 0.9106156
-2.096199 -0.4252205 0.9155338
-2.110776 -0.4258374 0.9216267
-2.129566 -0.4273378 0.9237871
-2.143835 -0.4290428 0.9290314
-2.160141 -0.4299931 0.9337457
-2.175474 -0.4308267 0.9386637
-2.192536 -0.4319937 0.942203
-2.20787 -0.4328273 0.947121
-2.231305 -0.4350112 0.9472913
-2.260682 -0.4384121 0.9421497
-2.289302 -0.4415963 0.9381832
-2.318679 -0.4449972 0.9330418
-2.346543 -0.4479646 0.9302505
-2.367277 -0.4496984 0.9320031
-2.379154 -0.4498652 0.9396791
-2.385845 -0.4490317 0.9514914
-2.395021 -0.4487483 0.9607499
-2.405385 -0.4484817 0.9707757
-2.41629 -0.4485317 0.9786555
-2.429139 -0.4488152 0.9861275
-2.443931 -0.4493321 0.993192
-2.458508 -0.4499489 0.999285
-2.472113 -0.4504491 1.005582
-2.485178 -0.4506325 1.014025
-2.497055 -0.4507993 1.021701
-2.503746 -0.4499658 1.033513
-2.507736 -0.4486822 1.046909
-2.522313 -0.4492991 1.053002
-2.537106 -0.4498159 1.060066
-2.548227 -0.449766 1.068917
-2.562804 -0.4503829 1.07501
-2.573168 -0.4501162 1.085036
-2.577158 -0.4488326 1.098431
-2.579421 -0.4472156 1.113205
-2.589569 -0.4470489 1.12226
-2.59626 -0.4462155 1.134072
-2.61451 -0.4473991 1.138379
-2.626602 -0.4474659 1.147026
-2.643879 -0.4485328 1.151537
-2.652515 -0.4479327 1.162941
-2.665364 -0.4482162 1.170414
-2.660496 -0.4453655 1.189732
0.8672403 0.1649579 3.396595
0.8678905 0.1657914 3.40283
0.8685409 0.1666249 3.409065
0.8664909 0.1670083 3.413718
0.8688697 0.1681752 3.421333
0.8675759 0.1687754 3.427161
0.8736271 0.1705091 3.436562
0.8752496 0.1714593 3.443001
0.8793569 0.1729597 3.451994
0.8827075 0.1742433 3.459813
0.8870305 0.1756436 3.467834
0.886709 0.1763605 3.473866
0.8856308 0.1768606 3.478723
0.8853091 0.1775774 3.484755
0.8825024 0.177744 3.488233
0.8794804 0.1780108 3.492682
0.876458 0.1782775 3.497131
0.874408 0.1786609 3.501784
0.8706294 0.1787109 3.505058
0.8676071 0.1789776 3.509507
0.8628564 0.1789109 3.512578
0.8590778 0.1789609 3.515852
0.8550836 0.1791109 3.520097
0.8513049 0.1791609 3.523371
0.8482829 0.1794276 3.52782
0.8445042 0.1794776 3.531095
0.841482 0.1797443 3.535544
0.8367314 0.1796776 3.538614
0.8327371 0.1798276 3.542859
0.8289585 0.1798776 3.546134
0.8251798 0.1799276 3.549407
0.8221577 0.1801943 3.553857
0.8201075 0.1805777 3.55851
0.8170854 0.1808444 3.562959
0.8133067 0.1808944 3.566233
0.8083405 0.1809277 3.570275
0.8035897 0.180861 3.573345
0.7998111 0.180911 3.576619
0.7948448 0.1809443 3.580661
0.7937667 0.1814444 3.585517
0.7880442 0.181261 3.588384
0.7859938 0.1816444 3.593037
0.7812433 0.1815777 3.596107
0.7764927 0.181511 3.599177
0.7724984 0.181661 3.603423
0.7677478 0.1815943 3.606493
0.7620249 0.1814109 3.60936
0.7590029 0.1816777 3.613809
0.7550086 0.1818277 3.618054
0.75123 0.1818777 3.621328
0.7462638 0.181911 3.62537
0.7424852 0.181961 3.628644
0.7357904 0.1816609 3.631307
0.7281236 0.1812441 3.633766
0.7224008 0.1810607 3.636632
0.7176502 0.180994 3.639703
0.7136559 0.181144 3.643948
0.7079334 0.1809606 3.646815
0.7049111 0.1812273 3.651264
0.7018888 0.181494 3.655713
0.6998387 0.1818774 3.660366
0.6968164 0.1821441 3.664815
0.6947663 0.1825275 3.669468
0.6917443 0.1827942 3.673917
0.688722 0.1830609 3.678367
0.6847278 0.183211 3.682612
0.6817055 0.1834777 3.687061
0.6777114 0.1836277 3.691307
0.6739328 0.1836777 3.694581
0.6709105 0.1839444 3.69903
0.6659443 0.1839777 3.703072
0.6611937 0.183911 3.706142
0.6542833 0.1837109 3.709776
0.6485605 0.1835275 3.712642
0.6445662 0.1836775 3.716888
0.6415442 0.1839442 3.721337
0.6377655 0.1839942 3.724611
0.6327993 0.1840276 3.728653
0.6251323 0.1836107 3.731112
0.6182222 0.1834107 3.734746
0.6134713 0.183344 3.737816
0.6028885 0.1825771 3.739664
-0.07002735 0.2309798 4.649811
-0.06019748 0.2326636 4.655938
-0.05641551 0.2337471 4.661813
-0.06084102 0.2340972 4.668002
-0.07250202 0.2338304 4.674706
-0.09193926 0.2326301 4.67978
-0.1430192 0.2285122 4.685338
-0.1829756 0.225478 4.691193
-0.2036004 0.224261 4.697035
-0.2183932 0.2237442 4.7041
-0.2310264 0.2233607 4.7106
-0.2414996 0.2231106 4.716537
-0.2480849 0.2233273 4.723289
-0.2556421 0.2234273 4.729837
-0.2631994 0.2235272 4.736385
-0.2676247 0.2238773 4.742574
-0.27421 0.224094 4.749325
-0.280795 0.2243107 4.756077
-0.2854362 0.2247607 4.763237
-0.2980694 0.2243772 4.769738
-0.3036825 0.2247106 4.776693
-0.3102675 0.2249273 4.783445
-0.3127491 0.2255108 4.790041
-0.3212784 0.2254941 4.796385
-0.3218157 0.2263109 4.803388
-0.3315326 0.2262775 4.8105
-0.3308821 0.227111 4.816736
-0.3364955 0.2274444 4.823691
-0.3380048 0.2281445 4.830491
-0.338542 0.2289614 4.837494
-0.3419955 0.2294281 4.843886
-0.3507404 0.2295115 4.851202
-0.3512778 0.2303283 4.858205
-0.3578628 0.230545 4.864957
-0.3656357 0.230745 4.872476
-0.3681171 0.2313284 4.879072
-0.3717862 0.2318952 4.886435
-0.3742675 0.2324787 4.893031
-0.3726451 0.2334289 4.89947
-0.3690788 0.2346125 4.906317
-0.3664844 0.2356794 4.91296
-0.3670216 0.2364962 4.919963
-0.3685309 0.2371964 4.926763
-0.3680964 0.2381299 4.933969
-0.365502 0.2391968 4.940612
-0.3679833 0.2397803 4.947208
-0.3634447 0.2410806 4.954259
-0.3608504 0.2421475 4.960902
-0.3570682 0.2432311 4.966777
-0.3566336 0.2441646 4.973984
-0.3518794 0.2453649 4.980063
-0.3533888 0.2460651 4.986863
-0.3435589 0.2477488 4.99299
-3.906501 0.08834502 6.445304
-3.887382 0.09139577 6.455411
-3.879061 0.09377968 6.468338
-3.870741 0.09616353 6.481264
-3.860045 0.09858079 6.492655
-3.851724 0.1009647 6.505581
-3.848695 0.1029651 6.519431
-3.837027 0.1054991 6.531025
-3.830651 0.1076496 6.543544
-3.82233 0.1100335 6.55647
-3.802995 0.1129842 6.565606
-3.77621 0.1164518 6.573254
-3.759035 0.1192691 6.582953
-3.752658 0.1214197 6.595472
-3.74099 0.1239536 6.607067
-3.745627 0.1255373 6.623376
-3.741411 0.1275544 6.636458
-3.730715 0.1299716 6.647849
-3.710192 0.132939 6.656218
-3.687726 0.1361399 6.664993
-3.614248 0.1565447 6.773918
-3.626336 0.1576115 6.791714
-3.61996 0.159762 6.804233
-3.606132 0.1624293 6.815264
-3.596408 0.1647299 6.826451
-3.582365 0.1672972 6.836511
-3.562814 0.1701479 6.844675
-3.554278 0.1724318 6.85663
-3.546714 0.1745989 6.868381
-3.537206 0.1769995 6.880539
-3.524134 0.1794501 6.890395
-3.515598 0.181734 6.90235
-3.508034 0.1839012 6.914101
-3.50047 0.1860683 6.925852
-3.486427 0.1886356 6.935911
-3.476702 0.1909362 6.947099
-3.463631 0.1933868 6.956954
-3.450776 0.1959374 6.967782
-3.444184 0.1979879 6.979329
-3.433488 0.2004051 6.99072
-3.427111 0.2025556 7.003239
-3.427214 0.204306 7.017448
-3.426344 0.2061731 7.031862
-3.417592 0.208357 7.042846
-3.410028 0.2105241 7.054597
-3.401492 0.212808 7.066552
-3.389609 0.2152419 7.077175
-3.379669 0.2174425 7.087391
-3.363251 0.2200431 7.095915
-3.289235 0.2354681 7.156055
-3.285991 0.2373685 7.168934
-3.280586 0.2394023 7.181249
-3.270862 0.2417029 7.192436
-3.263298 0.24387 7.204187
-3.251199 0.2462039 7.213839
-3.245795 0.2482377 7.226154
-3.239418 0.2503882 7.238673
-3.228291 0.2526055 7.248121
-3.218567 0.254906 7.259308
-3.213162 0.2569398 7.271623
-3.205598 0.259107 7.283374
-3.199006 0.2611575 7.294921
-3.196949 0.2630412 7.308568
-3.19176 0.265175 7.321854
-3.17275 0.267709 7.327872
-3.156332 0.2703097 7.336396
-3.139698 0.2728103 7.343949
-3.130946 0.2749941 7.354932
-3.127701 0.2768946 7.367811
-3.116789 0.2792118 7.378231
-3.116892 0.2809622 7.392441
-3.111488 0.282996 7.404756
-3.092694 0.28563 7.411745
-3.076059 0.2881306 7.419298
-3.076162 0.289881 7.433508
-3.059528 0.2923816 7.441061
-1.482901 -0.4650644 0.225998
-1.482137 -0.4625805 0.2454724
-1.472191 -0.4581128 0.2739875
-1.463757 -0.4540786 0.3001523
-1.466991 -0.4525782 0.3147225
-1.485351 -0.4542787 0.3149401
-1.502954 -0.4557625 0.3163329
-1.518828 -0.4569128 0.3191046
-1.536215 -0.4584965 0.319526
-1.543878 -0.4577798 0.3311346
-1.542899 -0.4553959 0.3496374
-1.542893 -0.4531288 0.3679367
-1.540941 -0.4506282 0.3866433
-1.537478 -0.4476942 0.4077002
-1.541684 -0.4463106 0.4220666
-1.549132 -0.4456939 0.4327038
-1.555607 -0.4449604 0.4435449
-1.56824 -0.4453439 0.4500456
-1.5866 -0.4470443 0.4502632
-1.60323 -0.4484113 0.4518599
-1.623534 -0.4503452 0.45167
-1.642865 -0.4521624 0.4516838
-1.658739 -0.4533127 0.4544555
-1.674521 -0.4554512 0.4573495
-1.691367 -0.4567182 0.4599172
-1.704757 -0.4573184 0.4652429
-1.716417 -0.4575851 0.4719474
-1.724081 -0.4568684 0.4835561
-1.730557 -0.4561349 0.4943969
-1.738976 -0.4556348 0.5048305
-1.743939 -0.4544679 0.5180217
-1.746958 -0.4530677 0.5316204
-1.75192 -0.4519007 0.5448118
-1.75764 -0.4509506 0.556828
-1.754932 -0.4482333 0.5767096
-1.758167 -0.446733 0.5912798
-1.7587 -0.4447825 0.6074326
-1.762691 -0.4434989 0.6208276
-1.76429 -0.4406771 0.6366542
-1.773466 -0.4403937 0.6459125
-1.782334 -0.4411986 0.654322
-1.793239 -0.4412487 0.6622015
-1.801658 -0.4407485 0.6726351
-1.819261 -0.4422323 0.674028
-1.837079 -0.443616 0.6763918
-1.857383 -0.4455499 0.6762022
-1.886328 -0.4491508 0.6691179
-1.917002 -0.4530851 0.6606549
-1.940763 -0.4556858 0.6577072
-1.965495 -0.4584032 0.6545559
-1.991956 -0.461454 0.6500256
-2.00999 -0.4627377 0.653361
-2.026836 -0.4640048 0.6559289
-2.041413 -0.4646216 0.6620221
-2.050589 -0.4643383 0.6712804
-2.055552 -0.4631714 0.6844717
-2.063 -0.4625546 0.695109
-2.069691 -0.4617211 0.7069215
-2.074438 -0.4606542 0.7191413
-2.076916 -0.4589372 0.7348865
-2.07745 -0.4569868 0.7510394
-2.073555 -0.4542528 0.7701535
-2.068903 -0.4513021 0.7904429
-2.06598 -0.4486849 0.8093535
-2.057656 -0.4451674 0.8314292
-2.056462 -0.4428836 0.8489606
-2.053539 -0.4402664 0.867871
-2.054828 -0.4385326 0.8828488
-2.057847 -0.4371323 0.8964475
-2.067023 -0.436849 0.9057059
-2.077928 -0.4368991 0.9135854
-2.092505 -0.4375159 0.9196786
-2.106867 -0.4382328 0.9248005
-2.124901 -0.4395165 0.928136
-2.140234 -0.4403501 0.933054
-2.156324 -0.4414004 0.9367968
-2.17263 -0.4423507 0.9415113
-2.192393 -0.4439678 0.9434679
-2.209454 -0.4451348 0.9470071
-2.233646 -0.4475355 0.9460021
-2.262266 -0.4507196 0.9420358
-2.290671 -0.4540038 0.937098
-2.318442 -0.4579594 0.934429
-2.344362 -0.4606934 0.9320453
-2.36434 -0.4622105 0.9349732
-2.375245 -0.4622606 0.9428527
-2.383664 -0.4617606 0.9532861
-2.395757 -0.4618273 0.9619334
-2.405905 -0.4616606 0.9709879
-2.417781 -0.4618274 0.9786638
-2.428902 -0.4617774 0.9875147
-2.43905 -0.4616108 0.9965693
-2.454599 -0.4623443 1.002459
-2.469176 -0.4629612 1.008552
-2.482025 -0.4632447 1.016024
-2.496818 -0.4637615 1.023088
-2.505238 -0.4632615 1.033522
-2.508256 -0.4618612 1.047121
-2.521105 -0.4621446 1.054593
-2.535897 -0.4626615 1.061657
-2.547018 -0.4626115 1.070508
-2.562567 -0.4633451 1.076398
-2.573687 -0.4632951 1.085248
-2.576706 -0.4618948 1.098847
-2.583397 -0.4610614 1.11066
-2.594517 -0.4610114 1.11951
-2.601209 -0.4601779 1.131323
-2.619458 -0.4613616 1.13563
-2.632523 -0.4615451 1.144073
-2.645371 -0.4618285 1.151545
-2.653791 -0.4613284 1.161979
-2.662427 -0.4607283 1.173383
-2.657344 -0.4579777 1.19173
0.8646829 0.160284 3.401655
0.8618762 0.1604507 3.405133
0.8623111 0.1613842 3.41234
0.8622049 0.162001 3.417401
0.8636117 0.1630512 3.424811
0.8669626 0.1643349 3.43263
0.8693414 0.1655018 3.440244
0.8726921 0.1667854 3.448062
0.8770151 0.1681857 3.456084
0.880366 0.1694694 3.463902
0.8817728 0.1705196 3.471313
0.8816667 0.1711364 3.476373
0.8823171 0.17197 3.482609
0.8810233 0.1725701 3.488437
0.8782167 0.1727368 3.491915
0.8742224 0.1728868 3.49616
0.8731443 0.1733869 3.501017
0.86915 0.1735369 3.505262
0.8663436 0.1737036 3.50874
0.8623493 0.1738536 3.512986
0.8585707 0.1739036 3.51626
0.8547921 0.1739536 3.519534
0.8498259 0.1739869 3.523576
0.8470192 0.1741536 3.527053
0.8439969 0.1744203 3.531502
0.8409749 0.174687 3.535952
0.8362243 0.1746203 3.539022
0.8341739 0.1750037 3.543675
0.8294233 0.174937 3.546745
0.8264011 0.1752037 3.551194
0.823379 0.1754704 3.555644
0.8213289 0.1758538 3.560297
0.8185222 0.1760205 3.563775
0.8155 0.1762872 3.568224
0.8097774 0.1761038 3.57109
0.8059987 0.1761538 3.574364
0.7993039 0.1758537 3.577027
0.7945533 0.175787 3.580097
0.7925033 0.1761704 3.58475
0.789481 0.1764371 3.5892
0.7874309 0.1768205 3.593853
0.7817081 0.1766371 3.596719
0.7804143 0.1772373 3.602547
0.7739352 0.1768371 3.604239
0.7718851 0.1772206 3.608891
0.7678909 0.1773706 3.613137
0.7631403 0.1773039 3.616207
0.759146 0.1774539 3.620453
0.7543954 0.1773872 3.623523
0.7504011 0.1775372 3.627768
0.74295 0.1770204 3.629256
0.7372272 0.176837 3.632123
0.7305324 0.1765369 3.634785
0.7255662 0.1765702 3.638827
0.7198436 0.1763868 3.641694
0.7177933 0.1767702 3.646347
0.7120707 0.1765868 3.649213
0.7090484 0.1768535 3.653662
0.7050542 0.1770035 3.657908
0.7030041 0.1773869 3.662561
0.6982535 0.1773202 3.665631
0.6979318 0.178037 3.671663
0.6949095 0.1783037 3.676112
0.6918874 0.1785705 3.680561
0.6871368 0.1785038 3.683631
0.6831425 0.1786538 3.687877
0.6781763 0.1786871 3.691919
0.6743976 0.1787371 3.695193
0.6694312 0.1787704 3.699234
0.6646806 0.1787037 3.702305
0.6587424 0.1786203 3.706142
0.6557201 0.178887 3.710592
0.6519415 0.178937 3.713866
0.6469753 0.1789703 3.717907
0.643953 0.179237 3.722357
0.6382304 0.1790536 3.725223
0.6286195 0.1784035 3.727275
0.6226813 0.1783201 3.731112
0.6179305 0.1782534 3.734183
0.6130572 0.1772986 3.738347
0.6034462 0.1766484 3.740398
-0.08415971 0.2227839 4.6434
-0.07044172 0.2249344 4.650342
-0.05963965 0.2267348 4.656672
-0.05585768 0.2278184 4.662548
-0.05736704 0.2285186 4.669347
-0.06568065 0.2284018 4.67472
-0.08122977 0.2276683 4.68061
-0.1373855 0.223067 4.686119
-0.1804736 0.2197827 4.692335
-0.2020706 0.218449 4.697973
-0.2178354 0.2178155 4.704834
-0.2332917 0.2160938 4.710846
-0.2408488 0.2161938 4.717394
-0.2474341 0.2164104 4.724146
-0.2549914 0.2165104 4.730694
-0.2603888 0.2167438 4.736678
-0.2660019 0.2170772 4.743634
-0.275719 0.2170438 4.750746
-0.283276 0.2171438 4.757294
-0.2857576 0.2177272 4.76389
-0.3024943 0.216977 4.770547
-0.3049759 0.2175604 4.777143
-0.3105889 0.2178938 4.784098
-0.3130703 0.2184772 4.790694
-0.3227873 0.2184438 4.797806
-0.3201927 0.2195108 4.804449
-0.3337979 0.2190106 4.810746
-0.3353073 0.2197107 4.817545
-0.3409204 0.2200441 4.824501
-0.3436173 0.2207276 4.832067
-0.3439391 0.2214444 4.838099
-0.3454484 0.2221446 4.844899
-0.3522494 0.2224612 4.852622
-0.3525709 0.2231781 4.858654
-0.357212 0.2236282 4.865813
-0.3637973 0.2238448 4.872565
-0.3643347 0.2246617 4.879569
-0.3689756 0.2251118 4.886728
-0.3736168 0.2255618 4.893888
-0.3760983 0.2261453 4.900483
-0.3725317 0.2273289 4.90733
-0.3699374 0.2283958 4.913973
-0.368315 0.229346 4.920412
-0.3700399 0.2301462 4.928183
-0.3693895 0.2309797 4.934419
-0.3689549 0.2319132 4.941626
-0.3683045 0.2327468 4.947861
-0.362794 0.2341638 4.955115
-0.359012 0.2352473 4.960991
-0.3544734 0.2365476 4.968041
-0.353823 0.2373812 4.974277
-0.3533882 0.2383147 4.981484
-0.3548976 0.2390149 4.988284
-0.3491714 0.2403318 4.994566
-3.904125 0.07287765 6.433012
-3.896776 0.07514486 6.445734
-3.878629 0.07807893 6.455637
-3.8756 0.08007938 6.469487
-3.870411 0.08221319 6.482773
-3.864251 0.08446369 6.496264
-3.857874 0.08661422 6.508782
-3.853873 0.08873136 6.522836
-3.837885 0.09153207 6.533303
-3.828377 0.09393261 6.545461
-3.815521 0.09648327 6.556289
-3.791867 0.09970071 6.564297
-3.75979 0.1035518 6.571021
-3.743587 0.1062524 6.580516
-3.742718 0.1081195 6.59493
-3.739688 0.1101199 6.60878
-3.738819 0.111987 6.623194
-3.743241 0.1134706 6.638532
-3.735892 0.1157378 6.651254
-3.720877 0.1184218 6.661518
-3.702823 0.122344 6.671298
-3.675821 0.1257116 6.677975
-3.59966 0.1408986 6.742734
-3.609589 0.1420988 6.759967
-3.617358 0.1434324 6.776636
-3.625128 0.144766 6.793305
-3.619939 0.1468998 6.806592
-3.610215 0.1492003 6.817779
-3.602866 0.1514676 6.830501
-3.587635 0.1540515 6.839793
-3.565925 0.1570356 6.847394
-3.55307 0.1595862 6.858221
-3.537838 0.1621702 6.867513
-3.525955 0.1646041 6.878136
-3.518606 0.1668713 6.890858
-3.51439 0.1688884 6.903941
-3.511145 0.1707889 6.91682
-3.503796 0.1730561 6.929542
-3.492885 0.1753733 6.939961
-3.481001 0.1778072 6.950585
-3.469118 0.1802411 6.961208
-3.455075 0.1828084 6.971268
-3.450858 0.1848255 6.98435
-3.439946 0.1871428 6.99477
-3.433569 0.1892933 7.007288
-3.427193 0.1914438 7.019807
-3.421789 0.1934776 7.032122
-3.413037 0.1956614 7.043105
-3.405688 0.1979287 7.055828
-3.399096 0.1999791 7.067375
-3.3884 0.2023964 7.078766
-3.379648 0.2045802 7.089749
-3.365389 0.2070475 7.098838
-3.280144 0.2229393 7.154216
-3.280463 0.2247897 7.169397
-3.278405 0.2266735 7.183043
-3.270841 0.2288406 7.194795
-3.264249 0.2308911 7.206342
-3.251178 0.2333417 7.216198
-3.246745 0.2352588 7.228309
-3.235834 0.2375761 7.238729
-3.224922 0.2398933 7.249148
-3.217358 0.2420605 7.260899
-3.215301 0.2439442 7.274545
-3.205362 0.2461447 7.284761
-3.20352 0.2481285 7.299379
-3.201463 0.2500123 7.313025
-3.197246 0.2520294 7.326108
-3.1818 0.2545133 7.334428
-3.169701 0.2568472 7.34408
-3.153066 0.2593479 7.351633
-3.139779 0.2616984 7.360518
-3.12984 0.263899 7.370734
-3.123463 0.2660495 7.383252
-3.116871 0.2681 7.394799
-3.106931 0.2703005 7.405015
-3.085763 0.2729678 7.41047
-3.06794 0.2754852 7.417255
-3.055841 0.277819 7.426907
-3.038019 0.2803364 7.433692
-1.480179 -0.4774765 0.2299394
-1.472595 -0.4726708 0.2548068
-1.471832 -0.470187 0.2742811
-1.462641 -0.465936 0.3016209
-1.468361 -0.4649858 0.313637
-1.484991 -0.4663529 0.3152337
-1.504323 -0.46817 0.3152475
-1.516647 -0.4696416 0.3208994
-1.535006 -0.4713421 0.321117
-1.543426 -0.470842 0.3315504
-1.544932 -0.4690083 0.3474994
-1.544925 -0.4667411 0.3657987
-1.545768 -0.4637026 0.3828003
-1.542304 -0.4607686 0.4038572
-1.545538 -0.4592683 0.4184274
-1.550501 -0.4581014 0.4316186
-1.557949 -0.4574846 0.4422557
-1.567881 -0.457418 0.450339
-1.584512 -0.4587851 0.4519356
-1.600509 -0.4608235 0.455801
-1.623081 -0.4634075 0.4520858
-1.638956 -0.4645578 0.4548573
-1.658287 -0.4663749 0.4548713
-1.673405 -0.4673086 0.4588181
-1.691008 -0.4687923 0.4602108
-1.703641 -0.4691758 0.4667115
-1.716274 -0.4695593 0.4732122
-1.724478 -0.4691592 0.4826744
-1.734626 -0.4689926 0.4917289
-1.741102 -0.4682591 0.5025701
-1.746065 -0.4670922 0.5157612
-1.750271 -0.4657086 0.5301277
-1.755018 -0.4646417 0.5423476
-1.758253 -0.4631414 0.5569176
-1.757273 -0.4607575 0.5754207
-1.758564 -0.4590238 0.5903982
-1.758341 -0.4568566 0.6077263
-1.760819 -0.4551396 0.6234713
-1.763838 -0.4537393 0.6370702
-1.771286 -0.4531226 0.6477073
-1.78219 -0.4531727 0.6555869
-1.793095 -0.4532228 0.6634663
-1.803027 -0.4531561 0.6715497
-1.817389 -0.453873 0.6766716
-1.834991 -0.4553567 0.6780643
-1.856267 -0.4574073 0.6776708
-1.883484 -0.4606748 0.6719655
-1.912429 -0.4642757 0.6648812
-1.940619 -0.46766 0.658972
-1.965258 -0.4713655 0.6559432
-1.991719 -0.4744163 0.6514128
-2.010509 -0.4759167 0.6535732
-2.028328 -0.4773003 0.6559374
-2.042689 -0.4780173 0.6610591
-2.051109 -0.4775172 0.6714927
-2.0551 -0.4762336 0.6848877
-2.060819 -0.4752834 0.6969038
-2.06751 -0.4744499 0.7087162
-2.070745 -0.4729496 0.7232864
-2.075708 -0.4717827 0.7364776
-2.075269 -0.4697156 0.7528341
-2.074075 -0.4674318 0.7703657
-2.070395 -0.4645978 0.7904513
-2.068228 -0.4621972 0.8081867
-2.059904 -0.4586798 0.8302624
-2.05871 -0.4563959 0.8477939
-2.056636 -0.4530073 0.8654069
-2.05717 -0.4510569 0.8815596
-2.060189 -0.4496566 0.8951583
-2.068609 -0.4491565 0.9055919
-2.078541 -0.4490899 0.9136752
-2.092146 -0.4495901 0.9199722
-2.10663 -0.451195 0.9261878
-2.12272 -0.4522453 0.9299307
-2.139782 -0.4534124 0.9334699
-2.155116 -0.454246 0.9383879
-2.171421 -0.4551962 0.9431023
-2.189456 -0.45648 0.9464377
-2.208246 -0.4579803 0.9485981
-2.232437 -0.460381 0.9475932
-2.258357 -0.4631151 0.9452094
-2.286005 -0.4661825 0.9414466
-2.312897 -0.4690333 0.9388591
-2.339696 -0.4728721 0.936394
-2.360431 -0.4746059 0.9381468
-2.375765 -0.4754396 0.9430649
-2.385157 -0.4750562 0.9532945
-2.398005 -0.4753396 0.9607666
-2.409882 -0.4755064 0.9684424
-2.421002 -0.4754564 0.9772934
-2.43115 -0.4752898 0.986348
-2.441514 -0.4750231 0.996374
-2.453391 -0.4751899 1.00405
-2.467211 -0.47559 1.011318
-2.480816 -0.4760902 1.017615
-2.496366 -0.4768238 1.023504
-2.503057 -0.4759903 1.035317
-2.508776 -0.4750401 1.047333
-2.51914 -0.4747734 1.057359
-2.531989 -0.4750569 1.064831
-2.54138 -0.4746735 1.075061
-2.560387 -0.476074 1.078192
-2.569778 -0.4756906 1.088422
-2.575497 -0.4747404 1.100438
-2.583161 -0.4740236 1.112047
-2.593309 -0.4738569 1.121101
-2.5973 -0.4725733 1.134497
-2.61825 -0.4742071 1.137221
-2.629586 -0.4740572 1.147043
-2.643407 -0.4744573 1.154311
-2.652583 -0.474174 1.16357
-2.664582 -0.4752288 1.172339
-2.659808 -0.4713901 1.191535
0.8553179 0.1536596 3.396141
0.8542398 0.1541597 3.400997
0.8573748 0.1555434 3.409787
0.8562968 0.1560435 3.414644
0.855975 0.1567603 3.420675
0.8610545 0.1583774 3.429873
0.8617047 0.1592109 3.436108
0.8640835 0.1603778 3.443722
0.8657058 0.161328 3.450162
0.8690568 0.1626117 3.45798
0.8724076 0.1638953 3.465798
0.8757585 0.1651789 3.473616
0.8727362 0.1654456 3.478065
0.8743586 0.1663958 3.484505
0.8713366 0.1666626 3.488954
0.8702585 0.1671627 3.493811
0.8689647 0.1677628 3.499639
0.866158 0.1679295 3.503117
0.864108 0.1683129 3.50777
0.8601137 0.1684629 3.512015
0.856335 0.1685129 3.515289
0.8523408 0.1686629 3.519535
0.8495342 0.1688296 3.523012
0.8465121 0.1690963 3.527462
0.8434898 0.169363 3.531911
0.8397111 0.169413 3.535185
0.8357169 0.169563 3.53943
0.8329105 0.1697297 3.542908
0.8281596 0.169663 3.545978
0.8251376 0.1699297 3.550428
0.8221153 0.1701964 3.554877
0.8210372 0.1706965 3.559733
0.8180151 0.1709632 3.564183
0.8159648 0.1713466 3.568835
0.8102422 0.1711632 3.571702
0.8054916 0.1710965 3.574773
0.7987968 0.1707964 3.577435
0.7950182 0.1708464 3.580709
0.7929682 0.1712298 3.585362
0.7899458 0.1714965 3.589811
0.7869235 0.1717632 3.594261
0.782173 0.1716965 3.597331
0.7808792 0.1722967 3.603159
0.7771006 0.1723467 3.606433
0.77235 0.17228 3.609503
0.7673838 0.1723133 3.613545
0.7645771 0.17248 3.617023
0.7596108 0.1725133 3.621065
0.7529161 0.1722132 3.623727
0.7491375 0.1722632 3.627001
0.7434149 0.1720798 3.629868
0.7357481 0.171663 3.632327
0.7317539 0.171813 3.636572
0.727003 0.1717463 3.639643
0.7222524 0.1716796 3.642713
0.7199867 0.172163 3.648337
0.7152361 0.1720963 3.651408
0.7112418 0.1722463 3.655653
0.7074632 0.1722963 3.658927
0.7061695 0.1728964 3.664755
0.6995677 0.1716082 3.66754
0.6984895 0.1721083 3.672397
0.6954673 0.172375 3.676846
0.6907167 0.1723083 3.679917
0.6867224 0.1724583 3.684162
0.6837004 0.1727251 3.688611
0.6787341 0.1727584 3.692653
0.6739833 0.1726917 3.695723
0.6690171 0.172725 3.699765
0.6652384 0.172775 3.703039
0.6602722 0.1728083 3.707081
0.655306 0.1728416 3.711122
0.6524993 0.1730083 3.7146
0.6475331 0.1730416 3.718642
0.6418103 0.1728582 3.721508
0.6358721 0.1727748 3.725346
0.6309059 0.1728082 3.729388
0.625183 0.1726248 3.732254
0.6175163 0.172208 3.734713
0.6125501 0.1722413 3.738755
-0.07949814 0.2172219 4.643978
-0.06578016 0.2193725 4.65092
-0.05908182 0.2208062 4.657406
-0.05432764 0.2220064 4.663486
-0.05680921 0.2225899 4.670082
-0.06123471 0.2229399 4.67627
-0.07462403 0.2223397 4.681595
-0.1953719 0.2121323 4.699081
-0.2130808 0.2112654 4.705534
-0.2298178 0.2105151 4.712192
-0.239319 0.2103817 4.718332
-0.2468762 0.2104817 4.72488
-0.2554055 0.210465 4.731225
-0.2619908 0.2106817 4.737977
-0.266416 0.2110318 4.744164
-0.2739733 0.2111318 4.750713
-0.2827182 0.2112151 4.758029
-0.2851997 0.2117985 4.764624
-0.3009645 0.211165 4.771485
-0.3034458 0.2117484 4.77808
-0.3059274 0.2123318 4.784676
-0.3125125 0.2125485 4.791428
-0.3210417 0.2125318 4.797772
-0.3184473 0.2135987 4.804416
-0.3321751 0.2122104 4.811806
-0.3377882 0.2125438 4.818762
-0.3402696 0.2131273 4.825357
-0.3449107 0.2135774 4.832517
-0.347392 0.2141608 4.839113
-0.3498736 0.2147443 4.845708
-0.3535425 0.215311 4.853071
-0.3540799 0.2161279 4.860075
-0.3575334 0.2165946 4.866467
-0.3643341 0.2169113 4.87419
-0.3605522 0.2179949 4.880065
-0.3663809 0.2184283 4.887992
-0.3729659 0.218645 4.894744
-0.3785793 0.2189784 4.9017
-0.3750127 0.220162 4.908546
-0.3743623 0.2209955 4.914782
-0.3739277 0.221929 4.921989
-0.374465 0.2227459 4.928992
-0.3697109 0.2239462 4.935071
-0.3692761 0.2248797 4.942278
-0.3676537 0.2258299 4.948718
-0.3621432 0.2272469 4.955972
-0.356417 0.2285639 4.962255
-0.3526348 0.2296475 4.968131
-0.3480965 0.2309478 4.975181
-0.3464741 0.231898 4.981621
-0.3460393 0.2328316 4.988828
-0.3403131 0.2341485 4.995111
-3.901635 0.0590607 6.433958
-3.900766 0.06092776 6.448371
-3.882619 0.0638618 6.458274
-3.886069 0.06546213 6.473816
-3.87872 0.06772938 6.486538
-3.874719 0.06984653 6.500592
-3.85992 0.07263049 6.511827
-3.855703 0.07464763 6.524909
-3.834424 0.07783177 6.534452
-3.822849 0.08135384 6.545925
-3.809994 0.08390444 6.556752
-3.792818 0.08672181 6.566452
-3.76506 0.0903061 6.574303
-3.753392 0.09284005 6.585898
-3.754467 0.09447371 6.599904
-3.744959 0.09687429 6.612063
-3.73761 0.09914145 6.624785
-3.734581 0.1011419 6.638635
-3.728204 0.1032924 6.651154
-3.714377 0.1059597 6.662185
-3.695042 0.1089105 6.67132
-3.611214 0.1245143 6.733621
-3.609156 0.1263981 6.747267
-3.6071 0.1282818 6.760913
-3.611737 0.1298655 6.777222
-3.61184 0.1316159 6.791432
-3.605463 0.1337663 6.80395
-3.59486 0.1371717 6.815219
-3.585136 0.1394723 6.826406
-3.571093 0.1420395 6.836466
-3.55705 0.1446069 6.846526
-3.544194 0.1471575 6.857353
-3.533498 0.1495747 6.868743
-3.530253 0.1514752 6.881622
-3.525065 0.153609 6.894908
-3.524195 0.1554761 6.909322
-3.516631 0.1576432 6.921073
-3.510254 0.1597937 6.933592
-3.496211 0.162361 6.943651
-3.481952 0.1648283 6.95274
-3.469096 0.1673789 6.963567
-3.456025 0.1698295 6.973423
-3.447273 0.1720134 6.984406
-3.436578 0.1744306 6.995797
-3.430201 0.1765811 7.008316
-3.425984 0.1785982 7.021398
-3.419392 0.1806488 7.032945
-3.413016 0.1827992 7.045464
-3.406639 0.1849497 7.057982
-3.399075 0.1871169 7.069734
-3.383844 0.1897009 7.079026
-3.372933 0.1920181 7.089445
-3.356607 0.1956069 7.097847
-3.281414 0.2118108 7.171552
-3.278169 0.2137112 7.184431
-3.269633 0.2159951 7.196386
-3.264228 0.2180289 7.208701
-3.256664 0.2201961 7.220451
-3.246724 0.2223966 7.230668
-3.237 0.2246972 7.241855
-3.224901 0.2270311 7.251507
-3.214962 0.2292316 7.261723
-3.207398 0.2313988 7.273474
-3.200805 0.2334493 7.285021
-3.199936 0.2353163 7.299435
-3.200254 0.2371667 7.314616
-3.196037 0.2391839 7.327699
-3.187286 0.2413677 7.338682
-3.175186 0.2437016 7.348334
-3.160712 0.2460689 7.356451
-3.147641 0.2485195 7.366307
-3.133166 0.2508867 7.374424
-3.123227 0.2530872 7.384639
-3.117822 0.2551211 7.396954
-3.104628 0.2584597 7.405716
-3.087022 0.2610771 7.413473
-3.072548 0.2634443 7.42159
-1.486518 -0.4909844 0.2237461
-1.474843 -0.4861832 0.25364
-1.470623 -0.4830325 0.2758721
-1.460554 -0.4776767 0.3032933
-1.465516 -0.4765098 0.3164847
-1.481298 -0.4786483 0.3193785
-1.504843 -0.4813489 0.3154598
-1.516504 -0.4816158 0.3221642
-1.533134 -0.4829828 0.3237607
-1.541554 -0.4824827 0.3341943
-1.545545 -0.4811991 0.3475893
-1.543053 -0.4783818 0.3684424
-1.544559 -0.4765481 0.3843913
-1.542824 -0.4739475 0.4040695
-1.545179 -0.4713424 0.4187208
-1.55187 -0.470509 0.4305331
-1.559981 -0.471097 0.440118
-1.568401 -0.4705969 0.4505513
-1.585032 -0.471964 0.4521479
-1.601878 -0.473231 0.4547158
-1.621966 -0.4752649 0.4535544
-1.639569 -0.4767486 0.4549472
-1.659656 -0.4787825 0.453786
-1.675746 -0.4798328 0.457529
-1.692593 -0.4810998 0.4600968
-1.706739 -0.4819168 0.4642473
-1.717643 -0.4819668 0.4721269
-1.726819 -0.4816835 0.4813852
-1.734267 -0.4810667 0.4920225
-1.741715 -0.4804499 0.5026599
-1.747649 -0.4793997 0.5156474
-1.75164 -0.4781161 0.5290423
-1.754874 -0.4766158 0.5436125
-1.759622 -0.4755489 0.5558325
-1.758643 -0.4731651 0.5743352
-1.759176 -0.4712147 0.5904881
-1.760682 -0.4693809 0.606437
-1.762945 -0.467764 0.6212108
-1.766179 -0.4662636 0.635781
-1.773627 -0.4656469 0.6464183
-1.782803 -0.4653635 0.6556767
-1.793707 -0.4654136 0.6635562
-1.804396 -0.4655636 0.6704645
-1.81703 -0.4659471 0.6769652
-1.835604 -0.4675476 0.6781541
-1.860337 -0.470265 0.6750028
-1.881304 -0.4734036 0.6737603
-1.908736 -0.4765711 0.6690263
-1.941139 -0.4808389 0.6591843
-1.964143 -0.4832229 0.6574118
-1.990603 -0.4862736 0.6528815
-2.009394 -0.4877741 0.6550419
-2.027119 -0.4901459 0.6575285
-2.039752 -0.4905294 0.6640291
-2.0472 -0.4899127 0.6746663
-2.052163 -0.4887457 0.6878574
-2.059611 -0.488129 0.6984948
-2.069002 -0.4877456 0.7087247
-2.071265 -0.4861286 0.7234984
-2.076984 -0.4851784 0.7355146
-2.076854 -0.4820231 0.7527201
-2.076416 -0.479956 0.7690765
-2.069064 -0.4765553 0.7909485
-2.066141 -0.473938 0.809859
-2.058789 -0.4705372 0.831731
-2.057594 -0.4682533 0.8492626
-2.054671 -0.4656361 0.8681732
-2.056933 -0.4640191 0.8829469
-2.05898 -0.4625021 0.8967493
-2.068156 -0.4622188 0.9060079
-2.077332 -0.4619354 0.9152663
-2.091909 -0.4625523 0.9213595
-2.105515 -0.4630525 0.9276565
-2.118904 -0.4636527 0.9329819
-2.136938 -0.4649363 0.9363174
-2.152272 -0.4657699 0.9412356
-2.167605 -0.4666036 0.9461535
-2.186302 -0.4690921 0.9484363
-2.207793 -0.4710426 0.9490139
-2.2295 -0.4728931 0.9505629
-2.25542 -0.4756272 0.9481791
-2.283069 -0.4786946 0.9444166
-2.308989 -0.4814287 0.9420329
-2.336853 -0.4843962 0.9392416
-2.357494 -0.4871181 0.9411166
-2.375528 -0.4884018 0.9444522
-2.386648 -0.4883518 0.953303
-2.400254 -0.488852 0.9596
-2.412345 -0.4889187 0.9682471
-2.425951 -0.4894189 0.9745441
-2.435342 -0.4890355 0.9847737
-2.447219 -0.4892023 0.9924495
-2.46374 -0.4900526 0.9981351
-2.47486 -0.4900026 1.006986
-2.485009 -0.489836 1.016041
-2.499586 -0.4904529 1.022134
-2.506277 -0.4896193 1.033946
-2.511997 -0.4886692 1.045962
-2.52236 -0.4884025 1.055988
-2.53348 -0.4883525 1.064839
-2.540928 -0.4877358 1.075477
-2.560906 -0.4892529 1.078404
-2.569542 -0.4886528 1.089809
-2.576989 -0.488036 1.100447
-2.58726 -0.4887575 1.110595
-2.597408 -0.4885908 1.11965
-2.599671 -0.4869738 1.134423
-2.618892 -0.4882742 1.138527
-2.62904 -0.4881075 1.147581
-2.641133 -0.4881742 1.156229
-2.655925 -0.4886911 1.163293
-2.666074 -0.4885245 1.172348
0.8449807 0.1469186 3.390422
0.8439026 0.1474187 3.395279
0.8472535 0.1487023 3.403097
0.8486601 0.1497526 3.410508
0.8493105 0.1505861 3.416743
0.8516892 0.151753 3.424358
0.854068 0.1529199 3.431972
0.8547184 0.1537535 3.438208
0.8563408 0.1547037 3.444647
0.8594761 0.1560873 3.453437
0.8601264 0.1569209 3.459672
0.8617488 0.1578711 3.466111
0.8660717 0.1592714 3.474133
0.8613211 0.1592047 3.477204
0.8636999 0.1603716 3.484818
0.8616498 0.160755 3.489471
0.8605716 0.1612552 3.494328
0.8592779 0.1618553 3.500156
0.8591717 0.1624721 3.505216
0.857878 0.1630722 3.511045
0.8550714 0.1632389 3.514522
0.8520493 0.1635056 3.518971
0.8472985 0.1634389 3.522042
0.8433045 0.1635889 3.526287
0.8395258 0.1636389 3.529561
0.8355316 0.1637889 3.533807
0.8327249 0.1639556 3.537284
0.8297026 0.1642223 3.541734
0.8266805 0.164489 3.546183
0.8246304 0.1648724 3.550836
0.8216082 0.1651391 3.555285
0.8195581 0.1655225 3.559938
0.8167514 0.1656892 3.563416
0.8147013 0.1660726 3.568069
0.8089786 0.1658892 3.570935
0.8040123 0.1659226 3.574977
0.7965612 0.1654057 3.576465
0.7918106 0.165339 3.579535
0.7887883 0.1656057 3.583984
0.7867382 0.1659891 3.588637
0.7846879 0.1663725 3.59329
0.7806939 0.1665226 3.597535
0.7786435 0.166906 3.602188
0.7738929 0.1668393 3.605259
0.7708707 0.167106 3.609708
0.7661201 0.1670393 3.612778
0.7621258 0.1671893 3.617023
0.7591037 0.167456 3.621473
0.7516526 0.1669392 3.62296
0.7469018 0.1668725 3.626031
0.7410566 0.165801 3.629991
0.736306 0.1657343 3.633061
0.7315551 0.1656676 3.636132
0.7285331 0.1659343 3.640581
0.7235668 0.1659676 3.644623
0.7224887 0.1664677 3.649479
0.7167659 0.1662843 3.652346
0.7127717 0.1664343 3.656591
0.708021 0.1663676 3.659662
0.7059709 0.166751 3.664315
0.698304 0.1663342 3.666773
0.6962539 0.1667176 3.671426
0.6922597 0.1668676 3.675672
0.6882654 0.1670176 3.679917
0.6844867 0.1670676 3.683191
0.683193 0.1676678 3.689019
0.6774704 0.1674844 3.691886
0.6725042 0.1675177 3.695928
0.6677534 0.167451 3.698998
0.6627871 0.1674843 3.703039
0.6580365 0.1674176 3.70611
0.6550143 0.1676843 3.710559
0.6510202 0.1678343 3.714804
0.6499421 0.1683344 3.719661
0.6440037 0.168251 3.723499
0.6373089 0.1679509 3.726162
0.6342869 0.1682177 3.730611
0.6246759 0.1675675 3.732662
0.616037 0.167034 3.734918
0.6139869 0.1674174 3.739571
-0.05885264 0.2133271 4.645874
-0.05507069 0.2144107 4.651749
-0.04740037 0.2159611 4.65844
-0.0477219 0.2166779 4.664471
-0.05020346 0.2172613 4.671067
-0.05462897 0.2176114 4.677255
-0.06510215 0.2173613 4.683192
-0.1618778 0.208521 4.693505
-0.1938421 0.2063203 4.700019
-0.211551 0.2054534 4.706472
-0.2279791 0.203615 4.712281
-0.2365084 0.2035983 4.718625
-0.2440656 0.2036983 4.725173
-0.2547547 0.2035482 4.732081
-0.2664157 0.2032814 4.738786
-0.2698692 0.2037482 4.745178
-0.280558 0.2035981 4.752086
-0.291247 0.203448 4.758994
-0.2886527 0.2045149 4.765637
-0.3022578 0.2040147 4.771934
-0.307871 0.2043481 4.77889
-0.3103523 0.2049316 4.785485
-0.3159654 0.2052649 4.792441
-0.3266544 0.2051149 4.799349
-0.3199563 0.2065485 4.805836
-0.335721 0.205915 4.812697
-0.3403622 0.206365 4.819856
-0.3428435 0.2069485 4.826452
-0.346297 0.2074153 4.832844
-0.3530977 0.207732 4.840567
-0.3495314 0.2089156 4.847414
-0.3510407 0.2096157 4.854213
-0.3484461 0.2106826 4.860856
-0.3518997 0.2111494 4.867248
-0.3575127 0.2114828 4.874204
-0.3570782 0.2124163 4.881411
-0.3636633 0.212633 4.888163
-0.3732873 0.2116115 4.895397
-0.3779284 0.2120615 4.902556
-0.3763061 0.2130118 4.908996
-0.3737114 0.2140787 4.915639
-0.3742488 0.2148955 4.922642
-0.372842 0.2159458 4.930053
-0.3713126 0.2178841 4.936369
-0.3696902 0.2188343 4.942809
-0.3702276 0.2196511 4.949812
-0.3635295 0.2210848 4.956299
-0.3589909 0.2223851 4.963349
-0.352077 0.2237188 4.968865
-0.3485106 0.2249024 4.975712
-0.3480758 0.2258359 4.982919
-0.3474256 0.2266695 4.989154
-0.3407273 0.2281031 4.995641
-3.893855 0.04562711 6.433979
-3.896333 0.04734419 6.449725
-3.880346 0.05014484 6.460192
-3.885955 0.05161183 6.476297
-3.880766 0.05374563 6.489583
-3.877737 0.05574609 6.503433
-3.857523 0.05980163 6.51265
-3.850175 0.06206885 6.525373
-3.828896 0.06525297 6.534916
-3.811721 0.06807032 6.544615
-3.784935 0.07153793 6.552263
-3.7656 0.07448866 6.561399
-3.735682 0.0782063 6.568687
-3.730278 0.08024009 6.581002
-3.739235 0.08155698 6.598438
-3.742685 0.08315732 6.61398
-3.735121 0.08532453 6.625731
-3.734251 0.08719156 6.640145
-3.729063 0.08932538 6.653431
-3.71414 0.09299751 6.663572
-3.695993 0.09593158 6.673475
-3.68195 0.09849885 6.683535
-3.62847 0.1105851 6.740489
-3.623281 0.112719 6.753776
-3.614745 0.1150028 6.76573
-3.616035 0.1167365 6.780708
-3.610631 0.1187703 6.793023
-3.602095 0.1210542 6.804978
-3.592587 0.1234547 6.817136
-3.585022 0.1256219 6.828887
-3.572167 0.1281726 6.839715
-3.560283 0.1306065 6.850338
-3.550559 0.132907 6.861525
-3.533262 0.1366125 6.870131
-3.528073 0.1387463 6.883417
-3.522668 0.1407801 6.895732
-3.518452 0.1427972 6.908814
-3.51661 0.144781 6.923432
-3.511206 0.1468148 6.935747
-3.497162 0.1493821 6.945807
-3.477612 0.1522328 6.953971
-3.46886 0.1544167 6.964954
-3.454817 0.156984 6.975014
-3.4506 0.1590011 6.988096
-3.444223 0.1611516 7.000615
-3.442166 0.1630354 7.014261
-3.433414 0.1652192 7.025245
-3.422719 0.1676365 7.036635
-3.411807 0.1699537 7.047055
-3.402083 0.1722543 7.058242
-3.395707 0.1744048 7.070761
-3.382636 0.1768553 7.080616
-3.373883 0.1790392 7.0916
-3.356586 0.1827447 7.100206
-3.279017 0.1989819 7.172376
-3.278148 0.200849 7.18679
-3.272743 0.2028828 7.199104
-3.266367 0.2050333 7.211623
-3.259775 0.2070838 7.22317
-3.25437 0.2091176 7.235485
-3.244646 0.2114182 7.246672
-3.232547 0.2137521 7.256324
-3.222824 0.2160526 7.267511
-3.212884 0.2182531 7.277727
-3.207479 0.220287 7.290042
-3.202075 0.2223208 7.302357
-3.199045 0.2243212 7.316207
-3.199148 0.2260716 7.330417
-3.189424 0.2283721 7.341604
