1.681364 2.258208 3.067022
1.67307 2.259356 3.062237
1.65874 2.253199 3.074308
1.650388 2.254179 3.068539
1.642227 2.253694 3.066058
1.631319 2.251921 3.068027
1.621285 2.250793 3.067801
1.610436 2.249189 3.070754
1.597846 2.245308 3.078267
1.590493 2.246285 3.072438
1.582141 2.247265 3.066669
1.57304 2.246952 3.065231
1.57074 2.253267 3.042941
1.562388 2.254247 3.037172
1.552413 2.253288 3.03793
1.542503 2.251512 3.03984
1.533409 2.250213 3.038571
1.522435 2.249257 3.039387
1.515023 2.250065 3.032575
1.508478 2.252505 3.023399
1.500251 2.252837 3.019766
1.491091 2.252355 3.017344
1.478494 2.24946 3.024688
1.469334 2.248977 3.022266
1.456868 2.244448 3.031915
1.447767 2.244134 3.030477
1.441222 2.246574 3.021301
1.432936 2.246737 3.016684
1.422152 2.244316 3.020789
1.4138 2.245296 3.01502
1.406381 2.24709 3.008039
1.395598 2.244669 3.012145
1.383067 2.240957 3.020641
1.376521 2.243397 3.011465
1.369851 2.246485 3.000152
1.359883 2.24454 3.001078
1.351532 2.24552 2.995308
1.343363 2.246021 2.99266
1.330023 2.240846 3.004503
1.320172 2.239239 3.007398
1.29605 2.242993 2.988878
1.205661 2.2418 2.968033
1.197492 2.242301 2.965383
1.187459 2.241173 2.965157
1.179981 2.242799 2.957192
1.066077 2.23274 2.962642
1.053362 2.240857 2.933548
1.041946 2.23748 2.943954
1.032721 2.237815 2.940379
1.023553 2.238318 2.937788
1.013019 2.2346 2.946167
1.004667 2.23558 2.940398
0.9971234 2.238023 2.93128
0.9887057 2.23982 2.924358
0.9797288 2.238858 2.925057
0.9682543 2.235312 2.934478
0.9554123 2.227545 2.954868
0.9470532 2.22951 2.94893
0.9380762 2.228549 2.949629
0.9297829 2.229697 2.944843
0.9220492 2.233605 2.932437
0.9144469 2.235879 2.922336
0.9030968 2.231684 2.933894
0.8933117 2.22926 2.93794
0.8827696 2.226528 2.94615
0.8729846 2.224104 2.950197
0.8646913 2.225253 2.945411
0.8540249 2.223169 2.951485
0.8463569 2.22626 2.940231
0.8403051 2.232275 2.922281
0.8341948 2.238122 2.903347
0.8244097 2.235698 2.907394
0.8174254 2.240899 2.890656
0.8068833 2.238167 2.898866
0.7964145 2.233633 2.908397
0.7866805 2.232363 2.913259
0.7767711 2.230587 2.915169
0.7662949 2.227038 2.924531
0.7586854 2.230297 2.914261
0.7493939 2.231449 2.909535
0.7405412 2.229839 2.91237
0.7327415 2.234564 2.898811
0.7236401 2.23425 2.897373
0.7152811 2.236216 2.891435
0.705496 2.233792 2.895482
0.6976378 2.238348 2.880939
0.6901526 2.240959 2.872805
0.6835449 2.249398 2.845326
0.6766192 2.254768 2.829572
0.6680772 2.257213 2.820513
0.6587857 2.258364 2.815786
0.6496185 2.258868 2.813196
0.6407658 2.257258 2.816031
0.6316572 2.25793 2.814425
0.6216161 2.257788 2.81403
0.6126975 2.256995 2.815713
0.6027881 2.255219 2.817623
0.5929957 2.253781 2.821501
0.5834519 2.251046 2.829652
0.5727855 2.248962 2.835725
0.5631832 2.246059 2.842892
0.5526413 2.243327 2.851102
0.5437886 2.241717 2.853938
0.5348042 2.241741 2.854468
0.5248874 2.240951 2.85621
0.5165942 2.2421 2.851424
0.5059278 2.240016 2.857497
0.4970093 2.239223 2.85918
0.488716 2.240372 2.854394
0.4794904 2.240706 2.85082
0.4704475 2.240562 2.850367
0.4610243 2.243347 2.843334
0.4522301 2.241906 2.847154
0.442562 2.23982 2.853168
0.4330876 2.24145 2.845321
0.4249114 2.242937 2.842503
0.41581 2.242623 2.841066
0.4065112 2.24476 2.83617
0.3980351 2.246389 2.828265
0.3876759 2.243177 2.839595
0.3787574 2.242384 2.841277
0.3694659 2.243536 2.836551
0.3606059 2.242912 2.839217
0.3510036 2.240009 2.846384
0.3410868 2.239218 2.848126
0.3322268 2.238594 2.850792
0.3225002 2.236339 2.855823
0.3134574 2.236194 2.85537
0.3045974 2.23557 2.858036
0.2946148 2.235596 2.858625
0.2851953 2.232213 2.868912
0.2760319 2.226549 2.883641
0.2668611 2.22187 2.898201
0.2571272 2.2206 2.903064
0.2483989 2.218342 2.908036
0.2391659 2.219663 2.904293
0.2303058 2.219038 2.906959
0.2211387 2.219542 2.904369
0.2119056 2.220862 2.900626
0.2026764 2.216014 2.914203
0.1939407 2.214742 2.919006
0.184832 2.215414 2.917399
0.1754162 2.217214 2.910536
0.04041705 2.216899 2.914553
0.003302135 2.222659 2.896461
-0.005930884 2.223979 2.892718
-0.06008916 2.220237 2.908777
-0.06919783 2.220909 2.907171
-0.07867954 2.223526 2.899155
-0.08810271 2.226311 2.892123
-0.09739422 2.227463 2.887397
-0.1068174 2.230248 2.880365
-0.1157359 2.229455 2.882048
-0.1243472 2.227535 2.888987
-0.1415699 2.223694 2.902866
-0.1493036 2.216251 2.92493
-0.1581051 2.215795 2.92858
-0.1768856 2.220549 2.915669
-0.1873655 2.223168 2.907712
-0.1969716 2.226433 2.89756
-0.2054586 2.223864 2.906636
-0.2320386 2.221992 2.914636
-0.2407742 2.22072 2.919439
-0.2497001 2.220912 2.920953
-0.2565598 2.214115 2.940821
-0.2672957 2.219016 2.928422
-0.2747186 2.215628 2.938592
-0.2848256 2.216303 2.937045
-0.2926288 2.215845 2.940637
-0.3030502 2.218633 2.933664
-0.3119102 2.218009 2.93633
-0.3217649 2.222569 2.921905
-0.3318719 2.223244 2.920357
-0.3431052 2.230738 2.899413
-0.3522139 2.23141 2.897807
-0.3940236 2.220509 2.936719
-0.4033883 2.223463 2.930671
-0.4141169 2.227379 2.918441
-0.4231085 2.228388 2.918802
-0.4318442 2.227116 2.923606
-0.4404555 2.225196 2.930545
-0.4482515 2.223752 2.934305
-0.4564898 2.219887 2.947654
-0.4656643 2.221376 2.944896
-0.4748388 2.222865 2.942137
-0.529509 2.223687 2.949312
-0.5388079 2.225824 2.944417
-0.5446693 2.219023 2.964226
-0.5549079 2.221332 2.960373
-0.6099512 2.224098 2.96114
-0.6190599 2.22477 2.959533
-0.6279857 2.224963 2.961047
-0.6603175 2.217614 2.990656
-0.6665007 2.213912 3.004871
-0.6769807 2.216531 2.996914
-0.6830982 2.212013 3.012281
-0.7842736 2.219324 3.011962
-0.7915136 2.215456 3.025252
-0.8004395 2.215649 3.026766
-0.8083085 2.216008 3.029205
-0.8183569 2.216851 3.028642
-0.82597 2.214928 3.035522
-0.8364573 2.218533 3.027397
-0.8452588 2.218078 3.031047
-0.8568028 2.221517 3.021997
-0.8671072 2.224642 3.016992
-0.87728 2.226134 3.014292
-0.8836461 2.222912 3.025387
-0.8926378 2.223921 3.025748
-0.9000607 2.220533 3.035918
-0.9090523 2.221543 3.03628
-0.9154185 2.218321 3.047374
-0.9254669 2.219164 3.046811
-0.9345829 2.220822 3.045036
-0.9461343 2.225246 3.035816
-0.9639201 2.224815 3.039997
-0.9727216 2.22436 3.043648
-0.9802762 2.222605 3.051512
-0.9880794 2.222147 3.055104
-0.9994406 2.225107 3.049174
-1.008242 2.224651 3.052824
-1.015921 2.223545 3.058553
-1.03378 2.224916 3.061412
-1.04027 2.222342 3.07037
-1.050319 2.223186 3.069807
-1.059311 2.224196 3.070168
-1.068236 2.224389 3.071682
-1.078351 2.226049 3.069966
-1.087276 2.226242 3.07148
-1.094897 2.225304 3.078192
-1.10507 2.226796 3.075492
-1.143033 2.23084 3.077056
-1.150836 2.230382 3.080648
-1.160826 2.231394 3.081068
-1.170999 2.232886 3.078368
-1.17999 2.233895 3.07873
-1.247736 2.222978 3.136465
-1.269153 2.227767 3.129802
-1.278079 2.22796 3.131317
-1.377364 2.224477 3.180504
-1.388725 2.227437 3.174574
-1.397534 2.227967 3.178056
-1.404149 2.226041 3.184878
-1.415393 2.229338 3.180916
-1.425383 2.23035 3.181336
-1.436744 2.23331 3.175406
-1.449111 2.237257 3.169366
-1.459159 2.238101 3.168803
-1.469273 2.239761 3.167087
-1.478016 2.239475 3.171721
-1.479899 2.234635 3.190957
-1.764761 2.230236 3.337727
-1.779249 2.234837 3.329669
1.88004 2.256181 3.12365
1.875242 2.259912 3.110083
1.863526 2.256676 3.1154
1.853492 2.255548 3.115174
1.84246 2.254423 3.115007
1.835988 2.25506 3.107152
1.829443 2.2575 3.097975
1.821157 2.257663 3.093358
1.812805 2.258644 3.087589
1.73354 2.248633 3.085888
1.727803 2.252536 3.073364
1.698956 2.258218 3.042598
1.688114 2.255628 3.04572
1.679828 2.255791 3.041103
1.667172 2.252727 3.047463
1.659819 2.253705 3.041634
1.651408 2.254516 3.034881
1.642373 2.253386 3.034596
1.629776 2.25049 3.04194
1.618868 2.248717 3.043909
1.606344 2.244019 3.052574
1.597119 2.244354 3.049
1.590639 2.245976 3.040976
1.582353 2.24614 3.036359
1.578298 2.25215 3.018291
1.570761 2.253607 3.009342
1.561726 2.252476 3.009058
1.551692 2.251348 3.008831
1.541717 2.250389 3.009589
1.530001 2.247154 3.014906
1.520834 2.247657 3.012316
1.513422 2.248466 3.005503
1.504255 2.248969 3.002913
1.495095 2.248487 3.000491
1.486059 2.247356 3.000206
1.478581 2.248982 2.992241
1.467674 2.247209 2.99421
1.458631 2.247064 2.993757
1.450279 2.248044 2.987987
1.440311 2.2461 2.988913
1.426964 2.241911 3.000589
1.417055 2.240135 3.002499
1.408703 2.241115 2.99673
1.399602 2.240801 2.995292
1.387136 2.236272 3.004941
1.380532 2.238543 2.994781
1.377168 2.245678 2.971397
1.365511 2.242611 2.977699
1.357218 2.24376 2.972913
1.348932 2.243923 2.968296
1.337399 2.240208 2.976733
1.326674 2.237956 2.981823
1.303366 2.242187 2.960123
1.247694 2.241125 2.950403
1.237035 2.238056 2.956645
1.229557 2.239681 2.948681
1.210415 2.239226 2.946848
1.202187 2.239558 2.943215
1.194709 2.241184 2.93525
1.185608 2.24087 2.933812
1.069024 2.228706 2.944864
1.064661 2.235843 2.92154
1.057052 2.239103 2.91127
1.044835 2.233277 2.925192
1.03735 2.235888 2.917058
1.028124 2.236223 2.913484
1.018215 2.234447 2.915394
1.010046 2.234948 2.912745
1.002436 2.238207 2.902475
0.9940846 2.239187 2.896706
0.9849832 2.238874 2.895268
0.9736331 2.234679 2.906826
0.9598514 2.227083 2.928258
0.9523736 2.228709 2.920294
0.9424568 2.227919 2.922035
0.9332896 2.228422 2.919445
0.9256216 2.231513 2.908191
0.9188933 2.234432 2.895895
0.9069179 2.228296 2.913921
0.8946353 2.223287 2.92669
0.8834096 2.218445 2.940384
0.8727506 2.215375 2.946626
0.8660149 2.21928 2.934161
0.8569136 2.218967 2.932723
0.8499878 2.224337 2.916969
0.8445027 2.232125 2.891567
0.8369591 2.234567 2.882449
0.8272325 2.232312 2.88748
0.8187491 2.234926 2.879405
0.8102729 2.236554 2.8715
0.8004805 2.235116 2.875377
0.7914377 2.234971 2.874924
0.7816525 2.232547 2.87897
0.7724854 2.233051 2.87638
0.7626344 2.231443 2.879274
0.7535916 2.231298 2.87882
0.743865 2.229043 2.883851
0.7368807 2.234245 2.867113
0.7123116 2.241746 2.840862
0.7044535 2.246302 2.826319
0.6958457 2.249564 2.816109
0.6875525 2.250713 2.811323
0.6789447 2.253974 2.801112
0.6699018 2.25383 2.800658
0.6608005 2.253516 2.79922
0.6508837 2.252726 2.800962
0.6419652 2.251933 2.802644
0.6320484 2.251143 2.804386
0.6220731 2.250184 2.805144
0.6132205 2.248574 2.807979
0.6033037 2.247784 2.809721
0.5936356 2.245697 2.815735
0.5838432 2.244259 2.819613
0.5733011 2.241527 2.827823
0.5643826 2.240734 2.829506
0.5547218 2.237662 2.835689
0.5454302 2.238814 2.830962
0.5364459 2.238837 2.831492
0.527904 2.241283 2.822434
0.5187368 2.241786 2.819843
0.5088201 2.240996 2.821585
0.49996 2.240372 2.824252
0.4907344 2.240706 2.820678
0.4808175 2.239916 2.822419
0.4717674 2.240757 2.821797
0.4626002 2.24126 2.819207
0.4528078 2.239822 2.823085
0.4439551 2.238212 2.82592
0.4354717 2.240826 2.817845
0.4260558 2.242626 2.810982
0.417013 2.242481 2.810528
0.40778 2.243801 2.806786
0.3994209 2.245767 2.800848
0.3889447 2.242218 2.81021
0.3794009 2.239483 2.818361
0.3705409 2.238859 2.821027
0.3605656 2.2379 2.821785
0.3510803 2.235334 2.83092
0.3412879 2.233896 2.834798
0.3324352 2.232286 2.837633
0.3226428 2.230848 2.841511
0.3140315 2.228927 2.848451
0.304239 2.227489 2.852329
0.295262 2.226527 2.853028
0.2855866 2.225426 2.858874
0.2764817 2.21993 2.874586
0.2662541 2.215085 2.888222
0.2575184 2.213813 2.893025
0.2477919 2.211558 2.898055
0.2387417 2.212399 2.897433
0.2295745 2.212902 2.894843
0.2207839 2.216643 2.881511
0.2126076 2.21813 2.878694
0.2030639 2.215395 2.886844
0.1937723 2.216547 2.882118
0.1848538 2.215754 2.8838
0.1756208 2.217074 2.880058
0.02976515 2.21614 2.886858
0.002442688 2.223339 2.864889
-0.03398827 2.219859 2.875783
-0.05121093 2.216018 2.889662
-0.0603196 2.216691 2.888056
-0.06998769 2.214604 2.89407
-0.07960105 2.218854 2.883749
-0.08870972 2.219527 2.882143
-0.09812558 2.221326 2.87528
-0.1076073 2.223943 2.867264
-0.1169719 2.226897 2.861217
-0.1258904 2.226104 2.862899
-0.135065 2.227593 2.86014
-0.1435446 2.224039 2.869385
-0.1517245 2.220343 2.883718
-0.1602041 2.216788 2.892962
-0.1703111 2.217463 2.891415
-0.1797342 2.220248 2.884383
-0.1892232 2.223851 2.876199
-0.1980833 2.223227 2.878865
-0.2070017 2.222434 2.880548
-0.2158618 2.22181 2.883215
-0.2242829 2.218424 2.893443
-0.2331429 2.2178 2.89611
-0.2435059 2.220757 2.890121
-0.2523001 2.219316 2.89394
-0.2598546 2.217561 2.901805
-0.2700858 2.218884 2.898121
-0.2790044 2.218091 2.899804
-0.2861859 2.214393 2.914078
-0.2952946 2.215065 2.912471
-0.3052114 2.214274 2.914212
-0.3143274 2.215932 2.912438
-0.3237433 2.217732 2.905575
-0.3342305 2.221337 2.897449
-0.3455881 2.229479 2.874369
-0.3548211 2.230799 2.870626
-0.3966309 2.219898 2.909537
-0.406928 2.222038 2.904701
-0.4444926 2.226363 2.89603
-0.4619054 2.223987 2.90662
-0.4693283 2.220599 2.91679
-0.4784443 2.222257 2.915014
-0.5420331 2.222285 2.923872
-0.5493317 2.218249 2.936179
-0.5567034 2.216015 2.947163
-0.6130521 2.219912 2.942731
-0.6234151 2.222868 2.936743
-0.632275 2.222244 2.939409
-0.6400198 2.221955 2.943985
-0.648814 2.220514 2.947804
-0.65631 2.218928 2.956652
-0.6648555 2.216191 2.964745
-0.6725343 2.215085 2.970473
-0.6815187 2.215109 2.971003
-0.6904445 2.215302 2.972517
-0.700493 2.216145 2.971953
-0.7095431 2.216986 2.971331
-0.7885043 2.216774 2.991308
-0.7974887 2.216798 2.991838
-0.8062317 2.216511 2.996472
-0.8150331 2.216055 3.000123
-0.8213993 2.212834 3.011217
-0.8316306 2.214156 3.007534
-0.8418692 2.216465 3.003681
-0.850795 2.216658 3.005195
-0.8623464 2.221082 2.995976
-0.872702 2.223053 2.990156
-0.8788853 2.219352 3.004371
-0.8863155 2.216949 3.014372
-0.8953657 2.21779 3.01375
-0.9042256 2.217166 3.016416
-0.9144058 2.219644 3.013548
-0.9551626 2.226427 3.001595
-0.9717673 2.225514 3.008837
-0.9805103 2.225227 3.013472
-0.9881892 2.224121 3.0192
-0.9945554 2.220899 3.030295
-1.004728 2.22239 3.027595
-1.014967 2.224699 3.023742
-1.031323 2.222489 3.035257
-1.041627 2.225615 3.030252
-1.0518 2.227107 3.027552
-1.05942 2.226169 3.034264
-1.149377 2.227957 3.054552
-1.157056 2.226851 3.06028
-1.164801 2.226562 3.064856
-1.176103 2.22969 3.05991
-1.183716 2.227767 3.06679
-1.192518 2.227312 3.070441
-1.255211 2.221732 3.111714
-1.267694 2.225343 3.103707
-1.276438 2.225056 3.108341
-1.28306 2.224116 3.114994
-1.303098 2.225971 3.114851
-1.383467 2.221284 3.162104
-1.397139 2.226362 3.150866
-1.409689 2.230789 3.141706
-1.41381 2.226265 3.156956
-1.42143 2.225328 3.163668
-1.43142 2.22634 3.164088
-1.443969 2.230767 3.154928
-1.455148 2.233247 3.152119
-1.466319 2.234742 3.149478
-1.476375 2.236571 3.148746
-1.484054 2.235465 3.154474
-1.487059 2.231276 3.171632
-1.551006 2.227981 3.208523
1.886914 2.252953 3.104485
1.88393 2.257158 3.087679
1.872149 2.254739 3.091844
1.860308 2.252152 3.095025
1.851957 2.253132 3.089255
1.845477 2.254755 3.081231
1.837132 2.254749 3.07563
1.829713 2.256544 3.068649
1.824923 2.259289 3.055251
1.812267 2.256225 3.061611
1.75556 2.25204 3.051472
1.74067 2.254474 3.036695
1.70658 2.256284 3.019101
1.694864 2.253049 3.024418
1.685704 2.252566 3.021996
1.671366 2.247394 3.033899
1.662207 2.246912 3.031478
1.655603 2.249183 3.021317
1.644753 2.247579 3.024271
1.632972 2.24516 3.028435
1.623004 2.243215 3.029361
1.609599 2.238858 3.040053
1.601254 2.238852 3.034452
1.592961 2.240001 3.029666
1.583925 2.23887 3.029381
1.579811 2.244712 3.01033
1.572399 2.245521 3.003518
1.560684 2.242285 3.008835
1.553264 2.244079 3.001854
1.544039 2.244414 2.998279
1.524969 2.242156 2.997768
1.517426 2.244598 2.988651
1.510014 2.245407 2.981838
1.49998 2.244279 2.981612
1.492626 2.245256 2.975783
1.485141 2.247868 2.96765
1.474358 2.245446 2.971756
1.460894 2.24092 2.981463
1.45429 2.243191 2.971303
1.444381 2.241415 2.973214
1.431784 2.238519 2.980557
1.422814 2.236572 2.981424
1.416078 2.240477 2.968959
1.406045 2.239349 2.968733
1.39532 2.237097 2.973822
1.38616 2.236614 2.971401
1.381987 2.242287 2.951366
1.369581 2.237926 2.961998
1.359671 2.236151 2.963908
1.350504 2.236654 2.961318
1.34047 2.235526 2.961092
1.330619 2.233919 2.963986
1.324823 2.237652 2.950478
1.31136 2.244477 2.925716
1.306255 2.249335 2.906892
1.298027 2.249667 2.903259
1.262365 2.239341 2.927478
1.252514 2.237734 2.930372
1.24173 2.235313 2.934477
1.236618 2.241157 2.915485
1.207566 2.238925 2.915562
1.199339 2.239257 2.911929
1.187806 2.235542 2.920367
1.167921 2.232807 2.923034
1.147287 2.228779 2.930034
1.098909 2.237922 2.890689
1.087376 2.234207 2.899127
1.069232 2.233749 2.897235
1.060749 2.236362 2.88916
1.050214 2.232645 2.897539
1.041862 2.233625 2.89177
1.03351 2.234605 2.886
1.024402 2.235277 2.884393
1.013618 2.232856 2.888499
1.004517 2.232542 2.887062
0.9954156 2.232229 2.885624
0.9864312 2.232253 2.886154
0.9757722 2.229183 2.892396
0.9635481 2.224344 2.906149
0.9568198 2.227262 2.893852
0.9467788 2.22712 2.893458
0.9385513 2.227452 2.889824
0.9300094 2.229898 2.880766
0.9216504 2.231863 2.874828
0.9112399 2.227498 2.885343
0.8998314 2.223135 2.895917
0.8884811 2.21894 2.907475
0.8770652 2.215562 2.91788
0.869463 2.217836 2.907778
0.8603544 2.218508 2.906172
0.8534359 2.222893 2.890586
0.84745 2.228091 2.873789
0.8397819 2.231182 2.862535
0.8304905 2.232333 2.857809
0.8215134 2.231371 2.858508
0.8130299 2.233985 2.850433
0.8040529 2.233024 2.851131
0.794202 2.231417 2.854026
0.7843511 2.22981 2.85692
0.7662069 2.229351 2.855029
0.7561657 2.229209 2.854633
0.747931 2.230527 2.850832
0.7416378 2.236853 2.828778
0.7351545 2.244644 2.803435
0.726671 2.247258 2.795361
0.7190615 2.250517 2.78509
0.70977 2.251669 2.780364
0.6997947 2.25071 2.781121
0.6908177 2.249748 2.78182
0.6814603 2.251716 2.775941
0.6724833 2.250755 2.77664
0.6626251 2.250133 2.779365
0.6526498 2.249174 2.780123
0.643106 2.24644 2.788274
0.6323812 2.244187 2.793364
0.6225887 2.242748 2.797241
0.6134873 2.242435 2.795804
0.6037534 2.241165 2.800665
0.5947105 2.241021 2.800212
0.5848596 2.239413 2.803106
0.575133 2.237158 2.808136
0.5660244 2.237831 2.80653
0.5561076 2.23704 2.808272
0.5478801 2.237372 2.804639
0.537839 2.23723 2.804244
0.5296043 2.238548 2.800442
0.5204371 2.239051 2.797852
0.5105203 2.238261 2.799593
0.5014774 2.238116 2.79914
0.4922444 2.239436 2.795397
0.4831431 2.239123 2.793959
0.4739101 2.240443 2.790217
0.4645527 2.242411 2.784338
0.4553855 2.242915 2.781747
0.4457174 2.240829 2.787762
0.43749 2.24116 2.784128
0.4274415 2.242004 2.783565
0.4177808 2.238932 2.789748
0.4088549 2.239125 2.791262
0.3996878 2.239628 2.788672
0.3900855 2.236724 2.795839
0.3797337 2.232527 2.807338
0.3708078 2.23272 2.808852
0.3609568 2.231113 2.811746
0.3514789 2.227561 2.82105
0.341745 2.226292 2.825912
0.332011 2.225022 2.830774
0.3224673 2.222288 2.838924
0.3139291 2.218565 2.847185
0.3040708 2.217943 2.84991
0.2950865 2.217967 2.850441
0.286168 2.217174 2.852124
0.27669 2.213623 2.861427
0.2668976 2.212184 2.865305
0.2579133 2.212208 2.865835
0.2489289 2.212232 2.866365
0.2396959 2.213552 2.862623
0.2305872 2.214224 2.861016
0.2212372 2.215207 2.855305
0.2120042 2.216528 2.851563
0.2028297 2.218017 2.848804
0.1938527 2.217055 2.849503
0.1845538 2.219192 2.844608
-0.08894015 2.21598 2.861422
-0.09910561 2.216486 2.858891
-0.1085288 2.219271 2.851859
-0.1178276 2.221409 2.846963
-0.1268705 2.221264 2.84651
-0.1362937 2.224049 2.839478
-0.145278 2.224073 2.840008
-0.1549461 2.221987 2.846023
-0.1639304 2.222011 2.846553
-0.1729806 2.222852 2.845931
-0.1822136 2.224172 2.842188
-0.1910736 2.223548 2.844854
-0.2008076 2.222278 2.849716
-0.2095432 2.221006 2.85452
-0.2184617 2.220213 2.856202
-0.2269487 2.217644 2.865278
-0.2359989 2.218485 2.864656
-0.2451734 2.219974 2.861897
-0.2540334 2.21935 2.864563
-0.2628276 2.217909 2.868382
-0.272876 2.218753 2.867819
-0.281736 2.218128 2.870486
-0.2901572 2.214743 2.880714
-0.2990172 2.214119 2.883381
-0.3062572 2.210251 2.896671
-0.3165543 2.212391 2.891834
-0.3258532 2.214528 2.886939
-0.3349619 2.2152 2.885333
-0.3458807 2.220581 2.869814
-0.3564264 2.224017 2.860704
-0.3637908 2.220798 2.871858
-0.3721535 2.217581 2.88307
-0.3984263 2.214581 2.896327
-0.4640666 2.219629 2.887169
-0.4715626 2.218043 2.896017
-0.5508784 2.211636 2.927241
-0.5598043 2.211829 2.928755
-0.6458047 2.221831 2.91386
-0.6519806 2.217144 2.928244
-0.659345 2.213925 2.939397
-0.6668338 2.211353 2.948414
-0.6757597 2.211546 2.949928
-0.6845611 2.211091 2.953578
-0.6947997 2.213399 2.949726
-0.7049724 2.214891 2.947026
-0.7140226 2.215732 2.946404
-0.8015293 2.212782 2.974473
-0.8103893 2.212158 2.977139
-0.8191909 2.211703 2.98079
-0.8256228 2.209298 2.990732
-0.8383552 2.214204 2.978451
-0.8472811 2.214397 2.979966
-0.8550844 2.213939 2.983557
-0.8677583 2.219014 2.97226
-0.8768669 2.219686 2.970654
-0.8828601 2.21452 2.988158
-0.9771793 2.223446 2.985121
-0.9859222 2.223159 2.989756
-0.9949066 2.223183 2.990286
-1.002527 2.222246 2.996998
-1.020254 2.221983 3.002163
-1.12788 2.223677 3.0286
-1.160972 2.222188 3.045052
-1.16747 2.2206 3.053841
-1.177394 2.220795 3.055414
-1.18395 2.219038 3.06322
-1.263742 2.22032 3.086039
-1.276291 2.224747 3.076878
-1.283846 2.222993 3.084743
-1.289155 2.219937 3.096763
-1.295712 2.21818 3.104568
-1.321125 2.217797 3.115293
-1.329934 2.218327 3.118774
-1.341171 2.220638 3.11498
-1.344111 2.215633 3.133292
-1.350601 2.213059 3.14225
-1.379573 2.216093 3.143452
-1.392122 2.22052 3.134292
-1.40567 2.22495 3.125191
-1.416848 2.22743 3.122381
-1.423405 2.225673 3.130187
-1.428714 2.222617 3.142207
-1.439892 2.225097 3.139397
-1.452376 2.228707 3.131389
-1.460121 2.228418 3.135965
-1.470111 2.22943 3.136385
-1.481289 2.23191 3.133576
-1.486599 2.228854 3.145595
-1.493096 2.227266 3.154385
-1.507891 2.232995 3.14107
-1.517947 2.234824 3.140337
-1.524445 2.233236 3.149127
-1.558173 2.225608 3.18903
1.895975 2.259606 3.05402
1.869739 2.251678 3.06812
1.865007 2.254591 3.055706
1.855847 2.254109 3.053284
1.847495 2.255089 3.047514
1.840083 2.255898 3.040702
1.834419 2.257998 3.029499
1.77147 2.249943 3.032591
1.762376 2.248644 3.031322
1.714145 2.254181 2.994619
1.703362 2.25176 2.998725
1.69501 2.25274 2.992955
1.682362 2.24869 2.999484
1.67326 2.248377 2.998046
1.664035 2.248712 2.994472
1.654875 2.248229 2.99205
1.641477 2.242886 3.002911
1.631377 2.242575 3.001532
1.617972 2.238217 3.012224
1.61056 2.239026 3.005411
1.603141 2.24082 2.99843
1.591367 2.237416 3.002763
1.584755 2.240673 2.992435
1.577343 2.241481 2.985622
1.565686 2.238414 2.991923
1.559082 2.240685 2.981763
1.549856 2.24102 2.978189
1.539073 2.238599 2.982294
1.529913 2.238116 2.979872
1.522435 2.239742 2.971908
1.515016 2.241536 2.964927
1.506664 2.242516 2.959157
1.500002 2.244618 2.948013
1.49339 2.247875 2.937684
1.484172 2.247224 2.934279
1.473447 2.244972 2.939368
1.465903 2.247414 2.930251
1.45587 2.246286 2.930024
1.443463 2.241926 2.940657
1.432679 2.239505 2.944763
1.421838 2.236914 2.947884
1.411796 2.236772 2.94749
1.400263 2.233057 2.955927
1.39023 2.23193 2.955701
1.382752 2.233555 2.947736
1.372777 2.232596 2.948494
1.361935 2.230006 2.951615
1.353575 2.231972 2.945677
1.346972 2.234243 2.935517
1.337812 2.233761 2.933095
1.3312 2.237017 2.922766
1.32279 2.237829 2.916013
1.317744 2.242856 2.898173
1.312756 2.248052 2.881317
1.302722 2.246924 2.881091
1.291939 2.244503 2.885196
1.28358 2.246468 2.879258
1.271173 2.242108 2.889891
1.25964 2.238393 2.898329
1.25048 2.23791 2.895907
1.243811 2.240999 2.884594
1.234709 2.240685 2.883156
1.225542 2.241188 2.880566
1.213077 2.236659 2.890215
1.203975 2.236346 2.888777
1.193184 2.23491 2.892714
1.184149 2.233779 2.892429
1.174174 2.23282 2.893187
1.16339 2.230399 2.897292
1.155221 2.2309 2.894643
1.145312 2.229124 2.896553
1.104288 2.237289 2.863037
1.094379 2.235513 2.864947
1.08297 2.23115 2.87552
1.074428 2.233595 2.866462
1.066943 2.236207 2.858329
1.056218 2.233954 2.863418
1.047991 2.234286 2.859785
1.038081 2.23251 2.861695
1.030413 2.235601 2.850441
1.018873 2.232871 2.85871
1.008214 2.229802 2.864952
0.9968635 2.225607 2.87651
0.9893857 2.227233 2.868545
0.977787 2.224335 2.87583
0.9686856 2.224021 2.874392
0.9626996 2.22922 2.857595
0.9437473 2.227299 2.859052
0.9343899 2.229268 2.853173
0.9252886 2.228954 2.851734
0.9147466 2.226222 2.859945
0.9034038 2.221042 2.871671
0.8936114 2.219604 2.875549
0.8821368 2.216058 2.88497
0.8737851 2.217038 2.879201
0.8662999 2.219649 2.871068
0.8586977 2.221923 2.860966
0.850898 2.226647 2.847407
0.8424219 2.228275 2.839501
0.8250858 2.22928 2.834262
0.8166097 2.230908 2.826356
0.8082506 2.232873 2.820418
0.7983338 2.232083 2.822159
0.7884244 2.230307 2.824069
0.7737721 2.238599 2.796077
0.7491373 2.246917 2.768674
0.7404709 2.250011 2.757479
0.7314281 2.249866 2.757025
0.7221366 2.251018 2.752299
0.7130353 2.250704 2.750861
0.7024932 2.247972 2.759071
0.6927666 2.245717 2.764102
0.6827255 2.245575 2.763707
0.6729331 2.244136 2.767585
0.6624569 2.240587 2.776947
0.6533555 2.240274 2.775509
0.6436874 2.238187 2.781524
0.6328967 2.236752 2.785461
0.6238539 2.236607 2.785007
0.6154363 2.238404 2.778085
0.605461 2.237445 2.778843
0.5962938 2.237948 2.776252
0.5871851 2.23862 2.774646
0.577517 2.236534 2.780661
0.5684742 2.236389 2.780207
0.5585574 2.235599 2.781949
0.5486479 2.233823 2.783859
0.5397879 2.233199 2.786525
0.5303721 2.234998 2.779662
0.5212634 2.235671 2.778056
0.5122206 2.235526 2.777602
0.5028706 2.236509 2.771891
0.4936375 2.237829 2.768148
0.4845288 2.238501 2.766542
0.4753031 2.238836 2.762968
0.4670099 2.239985 2.758183
0.4571516 2.239363 2.760908
0.4475493 2.236459 2.768075
0.4375668 2.236486 2.768664
0.4277743 2.235048 2.772542
0.4180477 2.232793 2.777573
0.409312 2.23152 2.782376
0.3992124 2.231209 2.780997
0.3895443 2.229123 2.787012
0.380059 2.226557 2.796146
0.3712064 2.224947 2.798982
0.3613481 2.224326 2.801707
0.3516214 2.22207 2.806738
0.3418876 2.220801 2.8116
0.3323438 2.218066 2.819751
0.3235496 2.216625 2.82357
0.3138815 2.214539 2.829584
0.3042719 2.212621 2.836583
0.2952949 2.211659 2.837281
0.2860619 2.212979 2.833539
0.2765181 2.210245 2.84169
0.2669744 2.20751 2.849841
0.2584251 2.210941 2.840613
0.2493237 2.210627 2.839176
0.2125819 2.214443 2.827494
0.2034147 2.214947 2.824904
0.1938051 2.213029 2.831902
0.1855118 2.214178 2.827116
0.1761545 2.216146 2.821237
-0.04443907 2.213778 2.834761
-0.05367209 2.215099 2.831018
-0.07232452 2.213036 2.837563
-0.08137468 2.213877 2.836941
-0.09010302 2.211619 2.841913
-0.09983697 2.21035 2.846774
-0.1094503 2.2146 2.836454
-0.118932 2.217217 2.828438
-0.1280407 2.217889 2.826831
-0.1373322 2.21904 2.822104
-0.147505 2.220532 2.819405
-0.156365 2.219908 2.822071
-0.1657223 2.221876 2.816192
-0.2110206 2.218758 2.829584
-0.2199464 2.218951 2.831098
-0.2285578 2.21703 2.838038
-0.2390377 2.21965 2.830081
-0.247649 2.217729 2.837021
-0.2565675 2.216936 2.838703
-0.2657421 2.218425 2.835944
-0.2756003 2.217804 2.83867
-0.2830305 2.215402 2.848671
-0.2929473 2.214611 2.850412
-0.3016244 2.213508 2.8562
-0.3084257 2.206879 2.877051
-0.3179074 2.209495 2.869035
-0.3287677 2.215044 2.854501
-0.3376276 2.214421 2.857167
-0.3481734 2.217857 2.848058
-0.465862 2.214312 2.873959
-0.4732264 2.211093 2.885112
-0.5132264 2.218184 2.868997
-0.563344 2.210403 2.902785
-0.5808812 2.208676 2.911239
-0.6224425 2.219179 2.885484
-0.6492127 2.218772 2.890195
-0.65627 2.214425 2.906605
-0.6624459 2.209738 2.920989
-0.669942 2.208152 2.929837
-0.6773649 2.204764 2.940007
-0.6859835 2.20383 2.946778
-0.6951581 2.205319 2.944019
-0.7068849 2.209237 2.931848
-0.7157522 2.209598 2.934346
-0.724678 2.209791 2.93586
-0.7346607 2.209818 2.936449
-0.7436523 2.210827 2.936811
-0.752388 2.209555 2.941614
-0.8071241 2.211193 2.947637
-0.8161816 2.21302 2.946846
-0.8734773 2.218073 2.943288
-0.8822203 2.217787 2.947922
-0.8883378 2.213268 2.96329
-0.8960752 2.211993 2.968034
-0.9254124 2.215986 2.962996
-0.9887745 2.217676 2.975621
-0.9987644 2.218688 2.976042
-1.007815 2.219529 2.975419
-1.102832 2.216965 3.011999
-1.114127 2.219108 3.007222
-1.122995 2.219469 3.00972
-1.134232 2.221781 3.005926
-1.177438 2.221952 3.020663
-1.184993 2.220197 3.028527
-1.190178 2.216493 3.042683
-1.250987 2.215754 3.06472
-1.255108 2.21123 3.07997
-1.269903 2.216959 3.066655
-1.307866 2.221002 3.068219
-1.33603 2.214149 3.100543
-1.347266 2.21646 3.09675
-1.351395 2.212922 3.11183
-1.356704 2.209866 3.12385
-1.398159 2.21651 3.117045
-1.411707 2.22094 3.107944
-1.424132 2.224719 3.10092
-1.429442 2.221663 3.112939
-1.433563 2.217139 3.12819
-1.44356 2.219137 3.128441
-1.454855 2.22128 3.123664
-1.460231 2.219041 3.134531
-1.473778 2.22347 3.12543
-1.484957 2.22595 3.12262
-1.492636 2.224844 3.128348
-1.501503 2.225206 3.130846
-1.516298 2.230935 3.117531
-1.526354 2.232764 3.116798
-1.576018 2.216954 3.192591
1.921235 2.256526 3.04085
1.910334 2.253767 3.042988
1.903789 2.256207 3.033812
1.889334 2.250697 3.043747
1.873999 2.245528 3.055709
1.868327 2.248613 3.044337
1.856553 2.245209 3.048671
1.847327 2.245543 3.045096
1.845217 2.250394 3.026096
1.837739 2.252019 3.018131
1.82764 2.251708 3.016752
1.823723 2.255099 3.001158
1.779094 2.248009 3.009094
1.769934 2.247527 3.006672
1.755918 2.250606 2.989699
1.738407 2.251104 2.981508
1.728439 2.249159 2.982435
1.719279 2.248677 2.980013
1.707432 2.247075 2.983025
1.700893 2.248529 2.974017
1.690044 2.246925 2.97697
1.681634 2.247736 2.970217
1.673348 2.2479 2.9656
1.662499 2.246295 2.968553
1.651657 2.243705 2.971674
1.640749 2.241932 2.973644
1.623914 2.234175 2.994269
1.617252 2.236278 2.983125
1.609024 2.236609 2.979492
1.580663 2.235503 2.974254
1.561404 2.23471 2.970454
1.553992 2.235518 2.963641
1.543084 2.233745 2.96561
1.534049 2.232615 2.965325
1.525697 2.233595 2.959556
1.518219 2.23522 2.951591
1.509926 2.236369 2.946805
1.504945 2.240579 2.930118
1.499215 2.243496 2.917762
1.491606 2.246755 2.907492
1.480764 2.244165 2.910614
1.47416 2.246436 2.900454
1.464993 2.24694 2.897864
1.452527 2.24241 2.907512
1.439996 2.238698 2.916008
1.427465 2.234986 2.924505
1.418364 2.234672 2.923067
1.405024 2.229498 2.934911
1.394991 2.22837 2.934685
1.388445 2.23081 2.925509
1.380901 2.233252 2.916391
1.370118 2.230831 2.920497
1.36339 2.23375 2.9082
1.35672 2.236838 2.896887
1.347685 2.235708 2.896602
1.338459 2.236042 2.893028
1.329292 2.236545 2.890438
1.322688 2.238816 2.880278
1.315959 2.241736 2.867981
1.305918 2.241594 2.867586
1.296817 2.24128 2.866148
1.286717 2.240969 2.86477
1.27525 2.236437 2.874359
1.262719 2.232725 2.882856
1.254492 2.233057 2.879223
1.245266 2.233392 2.875649
1.237781 2.236003 2.867515
1.229429 2.236983 2.861746
1.221143 2.237146 2.857129
1.210294 2.235542 2.860081
1.199503 2.234106 2.864019
1.190467 2.232976 2.863734
1.179618 2.231371 2.866687
1.166462 2.225717 2.881651
1.158169 2.226866 2.876865
1.147385 2.224444 2.880971
1.13473 2.232731 2.852861
1.108051 2.233732 2.84208
1.098075 2.232773 2.842838
1.075876 2.226974 2.857348
1.069206 2.230062 2.846035
1.058547 2.226993 2.852278
1.050938 2.230252 2.842007
1.040962 2.229293 2.842765
1.03336 2.231567 2.832664
1.021952 2.227204 2.843238
1.011285 2.22512 2.849311
0.9983774 2.218169 2.868548
0.9907094 2.22126 2.857295
0.9807341 2.220301 2.858052
0.9723823 2.221281 2.852283
0.9473197 2.225207 2.834806
0.9380867 2.226527 2.831063
0.9281772 2.224751 2.832973
0.9184507 2.222496 2.838004
0.9077842 2.220412 2.844077
0.8993081 2.222041 2.836171
0.8895815 2.219785 2.841202
0.8810396 2.22223 2.832143
0.8734301 2.22549 2.821873
0.854412 2.224386 2.822177
0.8468098 2.22666 2.812076
0.8382605 2.230091 2.802849
0.8291007 2.229609 2.800427
0.8208659 2.230926 2.796625
0.8130736 2.234665 2.783235
0.8038479 2.234999 2.779661
0.7946807 2.235503 2.777071
0.7869468 2.23941 2.764664
0.7800284 2.243795 2.749079
0.7706711 2.245763 2.743199
0.7621949 2.247391 2.735293
0.7539017 2.24854 2.730508
0.7438021 2.248229 2.729129
0.7338853 2.247439 2.73087
0.7249668 2.246646 2.732553
0.7149915 2.245687 2.733311
0.7036414 2.241493 2.744869
0.6940318 2.239575 2.751867
0.6833727 2.236505 2.758109
0.6735145 2.235884 2.760835
0.6629139 2.232983 2.768061
0.6546207 2.234132 2.763275
0.6447039 2.233342 2.765017
0.6356611 2.233197 2.764563
0.6258686 2.231759 2.768441
0.6173267 2.234204 2.759382
0.6072271 2.233893 2.758004
0.5981842 2.233748 2.75755
0.5898252 2.235714 2.751612
0.5799084 2.234924 2.753353
0.5699331 2.233965 2.754111
0.5608245 2.234637 2.752505
0.5517815 2.234492 2.752051
0.5420549 2.232237 2.757082
0.5325733 2.234854 2.749066
0.5234719 2.23454 2.747628
0.5144876 2.234564 2.748158
0.5052546 2.235884 2.744416
0.4961532 2.235571 2.742978
0.4862364 2.23478 2.74472
0.4771277 2.235452 2.743113
0.467902 2.235787 2.739539
0.4581096 2.234349 2.743417
0.4483756 2.233079 2.748279
0.4385832 2.231641 2.752157
0.4289151 2.229554 2.758172
0.4184389 2.226005 2.767534
0.4087708 2.223919 2.773548
0.3998523 2.223126 2.775231
0.3902427 2.221208 2.782229
0.3806989 2.218473 2.79038
0.3709065 2.217035 2.794259
0.3619295 2.216074 2.794957
0.3521371 2.214635 2.798835
0.3430284 2.215307 2.797229
0.3333018 2.213052 2.802259
0.3243174 2.213076 2.802789
0.3147736 2.210341 2.810941
0.3047326 2.210199 2.810546
0.2956824 2.21104 2.809923
0.286826 2.215598 2.795439
0.176297 2.210655 2.806926
-0.009233247 2.218897 2.786054
-0.06432022 2.208172 2.820643
-0.07305588 2.2069 2.825446
-0.08223037 2.208389 2.822688
-0.09102456 2.206948 2.826507
-0.1003234 2.209085 2.821611
-0.1112349 2.21348 2.806261
-0.1207239 2.217082 2.798077
-0.1293279 2.214176 2.805185
-0.1386925 2.21713 2.799137
-0.1487995 2.217805 2.79759
-0.1575937 2.216364 2.801409
-0.2124395 2.216679 2.805633
-0.2226707 2.218002 2.801949
-0.2314064 2.21673 2.806752
-0.242135 2.220645 2.794522
-0.2508122 2.219542 2.800309
-0.2684664 2.217477 2.806795
-0.2773264 2.216853 2.809462
-0.2872505 2.217048 2.811034
-0.2959861 2.215776 2.815838
-0.3049119 2.215968 2.817352
-0.3128943 2.209822 2.835142
-0.3221346 2.212128 2.831231
-0.3325487 2.21393 2.824427
-0.3415404 2.21494 2.824788
-0.3762344 2.208554 2.848273
-0.4332706 2.216508 2.832006
-0.4679061 2.210291 2.856475
-0.4763931 2.207723 2.865552
-0.4870632 2.211807 2.854306
-0.515329 2.213995 2.85053
-0.5414775 2.210347 2.865923
-0.6255435 2.214993 2.867076
-0.6890186 2.198826 2.929522
-0.7008187 2.204547 2.91603
-0.7113644 2.207983 2.906921
-0.7198514 2.205414 2.915997
-0.7276546 2.204956 2.919589
-0.7379518 2.207096 2.914752
-0.746563 2.205176 2.921691
-0.9925664 2.212364 2.962529
-1.011724 2.21388 2.960359
-1.076208 2.227571 2.936437
-1.106748 2.212302 2.996771
-1.116797 2.213145 2.996207
-1.145885 2.215842 2.995442
-1.247093 2.210562 3.046069
-1.256026 2.211741 3.047414
-1.26127 2.207868 3.060586
-1.275066 2.213594 3.047212
-1.287426 2.216556 3.041341
-1.298729 2.219684 3.036395
-1.305161 2.217279 3.046337
-1.315209 2.218123 3.045773
-1.32808 2.214298 3.065489
-1.335759 2.213192 3.071217
-1.343504 2.212903 3.075792
-1.353552 2.213746 3.075229
-1.362295 2.213459 3.079864
-1.408259 2.208145 3.116031
-1.418315 2.209975 3.115299
-1.42724 2.210167 3.116813
-1.431303 2.205812 3.133047
-1.446164 2.212358 3.118579
-1.456212 2.213202 3.118016
-1.463898 2.213081 3.123575
-1.480938 2.220111 3.106105
-1.493298 2.223073 3.100234
-1.500984 2.222953 3.105793
-1.512287 2.226081 3.100847
-1.52808 2.231812 3.08759
-1.533448 2.228588 3.098626
1.918083 2.251185 3.021627
1.909731 2.252165 3.015858
1.898831 2.249406 3.017995
1.887049 2.246987 3.02216
1.876891 2.246508 3.019797
1.864301 2.242627 3.027309
1.853393 2.240853 3.029279
1.850285 2.245706 3.010337
1.839319 2.243764 3.011322
1.833647 2.24685 2.99995
1.829599 2.251874 2.982052
1.819566 2.250746 2.981825
1.808658 2.248973 2.983794
1.79944 2.248322 2.980389
1.780246 2.246712 2.977741
1.757063 2.250295 2.958178
1.744349 2.247062 2.963554
1.733507 2.244472 2.966676
1.722599 2.242699 2.968645
1.715063 2.244156 2.959696
1.707709 2.245133 2.953867
1.698484 2.245468 2.950294
1.690132 2.246448 2.944524
1.680913 2.245797 2.941118
1.670938 2.244838 2.941876
1.660838 2.244527 2.940497
1.650871 2.242582 2.941424
1.634785 2.236119 2.957717
1.626558 2.236451 2.954084
1.618147 2.237262 2.947331
1.594774 2.23096 2.958949
1.58817 2.233231 2.948789
1.578129 2.233089 2.948394
1.570717 2.233898 2.941581
1.561491 2.234232 2.938007
1.549776 2.230997 2.943324
1.540674 2.230683 2.941886
1.530575 2.230372 2.940508
1.522347 2.230705 2.936875
1.510639 2.237834 2.907891
1.504843 2.241567 2.894382
1.499987 2.245129 2.879831
1.489079 2.243356 2.8818
1.480661 2.245153 2.874878
1.471626 2.244023 2.874593
1.459903 2.241773 2.879742
1.44494 2.234659 2.898113
1.433158 2.23224 2.902278
1.425746 2.233049 2.895465
1.415771 2.23209 2.896223
1.404114 2.229023 2.902524
1.399126 2.234219 2.885668
1.3899 2.234553 2.882094
1.378992 2.23278 2.884063
1.370765 2.233112 2.88043
1.363229 2.234569 2.871481
1.352438 2.233133 2.875418
1.345776 2.235235 2.864274
1.334926 2.233631 2.867227
1.326633 2.23478 2.862441
1.317407 2.235114 2.858867
1.308997 2.235926 2.852113
1.299022 2.234967 2.852871
1.29067 2.235947 2.847102
1.279196 2.232401 2.856523
1.269096 2.23209 2.855144
1.258313 2.229669 2.85925
1.248337 2.22871 2.860008
1.240168 2.22921 2.857358
1.232508 2.231315 2.846273
1.223406 2.231002 2.844835
1.214181 2.231336 2.841262
1.205887 2.232485 2.836476
1.19747 2.234282 2.829554
1.186745 2.232029 2.834643
1.174338 2.227669 2.845276
1.166736 2.229943 2.835175
1.156135 2.227042 2.842401
1.14541 2.224789 2.84749
1.139366 2.229819 2.829709
1.107199 2.222076 2.845146
1.098905 2.223224 2.84036
1.086557 2.219033 2.851977
1.078955 2.221307 2.841876
1.072161 2.225043 2.828426
1.063118 2.224898 2.827973
1.055516 2.227172 2.817872
1.04554 2.226213 2.818629
1.036249 2.227364 2.813903
1.025648 2.224463 2.821128
1.014989 2.221394 2.82737
1.002016 2.215261 2.845455
0.9867382 2.221611 2.823932
0.9798855 2.225178 2.809499
0.9745907 2.231501 2.787385
0.9547572 2.229921 2.790869
0.9440322 2.227668 2.795958
0.9341227 2.225892 2.797868
0.9235222 2.222991 2.805094
0.9129217 2.220091 2.81232
0.9045041 2.221888 2.805398
0.8945289 2.220929 2.806156
0.8847364 2.21949 2.810034
0.8761287 2.222752 2.799823
0.8663435 2.220328 2.80387
0.8573006 2.220183 2.803416
0.8486929 2.223445 2.793205
0.8417745 2.22783 2.777619
0.8341723 2.230103 2.767518
0.827188 2.235305 2.75078
0.8193957 2.239043 2.737389
0.8109123 2.241657 2.729314
0.8018109 2.241344 2.727877
0.7925852 2.241678 2.724303
0.7840433 2.244124 2.715244
0.7748103 2.245444 2.711502
0.7655187 2.246595 2.706775
0.7564832 2.245465 2.70649
0.7466249 2.244843 2.709215
0.736774 2.243236 2.712109
0.7259833 2.241801 2.716046
0.7162567 2.239545 2.721076
0.7050309 2.234703 2.734771
0.6943645 2.232619 2.740844
0.683764 2.229718 2.74807
0.6739715 2.22828 2.751948
0.6641791 2.226841 2.755826
0.6565111 2.229932 2.744572
0.6465943 2.229142 2.746314
0.636619 2.228183 2.747072
0.6267608 2.227561 2.749798
0.6190928 2.230652 2.738544
0.6093003 2.229213 2.742421
0.6000088 2.230365 2.737695
0.5906588 2.231348 2.731984
0.5815501 2.23202 2.730378
0.5725072 2.231875 2.729924
0.5630329 2.233506 2.722077
0.5539243 2.234178 2.720471
0.5440732 2.232571 2.723365
0.5357142 2.234537 2.717427
0.5258632 2.23293 2.720321
0.5160049 2.232308 2.723047
0.5060297 2.231349 2.723804
0.4962372 2.229911 2.727682
0.4864448 2.228473 2.73156
0.4775263 2.227679 2.733243
0.4683591 2.228183 2.730652
0.4585009 2.227561 2.733378
0.4488328 2.225475 2.739392
0.4392304 2.222571 2.746559
0.4292478 2.222598 2.747149
0.418896 2.218401 2.758648
0.4091621 2.217132 2.763509
0.400185 2.21617 2.764208
0.390517 2.214083 2.770223
0.3809073 2.212166 2.777221
0.3711807 2.20991 2.782252
0.3613883 2.208472 2.78613
0.3522796 2.209144 2.784523
0.3429881 2.210296 2.779797
0.3333785 2.208378 2.786795
0.2963259 2.208139 2.787007
-0.06486514 2.206739 2.794497
-0.07384948 2.206763 2.795027
-0.09269209 2.206165 2.798283
-0.1016764 2.206189 2.798813
-0.1222012 2.214835 2.773142
-0.1307468 2.212097 2.781234
-0.1399139 2.212601 2.778644
-0.1498965 2.212627 2.779233
-0.1586322 2.211355 2.784036
-0.2145421 2.21249 2.787166
-0.2235849 2.212345 2.786712
-0.2324449 2.211721 2.789378
-0.243115 2.215805 2.778133
-0.2517922 2.214702 2.78392
-0.2703203 2.211991 2.792601
-0.2792461 2.212184 2.794115
-0.2881646 2.211391 2.795798
-0.2967175 2.209639 2.803721
-0.3057018 2.209663 2.804251
-0.314123 2.206278 2.81448
-0.3229245 2.205822 2.81813
-0.3328486 2.206018 2.819703
-0.3418329 2.206042 2.820234
-0.378337 2.204365 2.829806
-0.3872629 2.204557 2.83132
-0.3944956 2.199704 2.844779
-0.404544 2.200548 2.844215
-0.413404 2.199924 2.846882
-0.4352416 2.210685 2.815845
-0.4454144 2.212177 2.813145
-0.4539672 2.210425 2.821068
-0.5086301 2.210261 2.828412
-0.51862 2.211273 2.828833
-0.5347201 2.206782 2.844789
-0.5449514 2.208104 2.841105
-0.552506 2.20635 2.84897
-0.5612416 2.205078 2.853773
-0.5712315 2.20609 2.854193
-0.5877705 2.20436 2.862588
-0.5992486 2.206982 2.85469
-0.6085474 2.209119 2.849795
-0.6288272 2.211285 2.845547
-0.7053493 2.202138 2.890288
-0.7155879 2.204447 2.886435
-0.7245136 2.20464 2.88795
-0.9991594 2.210778 2.935751
-1.008085 2.210971 2.937266
-1.017135 2.211812 2.936643
-1.027001 2.212176 2.9392
-1.037298 2.214316 2.934364
-1.058898 2.219584 2.924581
-1.067634 2.218312 2.929384
-1.078936 2.22144 2.924438
-1.089109 2.222932 2.921738
-1.123265 2.210911 2.971567
-1.19669 2.204065 3.017761
-1.254567 2.209316 3.021318
-1.261065 2.207728 3.030107
-1.266184 2.203207 3.045416
-1.281228 2.210232 3.027828
-1.291342 2.211893 3.026112
-1.302513 2.213387 3.023471
-1.306641 2.209849 3.038552
-1.320189 2.214279 3.029451
-1.324186 2.209107 3.046837
-1.331931 2.208818 3.051413
-1.340732 2.208362 3.055063
-1.352093 2.211322 3.049133
-1.358467 2.209085 3.060059
-1.36484 2.206849 3.070985
-1.371397 2.205092 3.078791
-1.375393 2.19992 3.096177
-1.390692 2.197876 3.108617
-1.411433 2.194411 3.130772
-1.419053 2.193473 3.137483
-1.425419 2.190251 3.148578
-1.437969 2.194678 3.139418
-1.448025 2.196507 3.138686
-1.459262 2.198819 3.134892
-1.47749 2.207317 3.114192
-1.492285 2.213046 3.100877
-1.503463 2.215526 3.098067
-1.515823 2.218488 3.092196
-1.530617 2.224216 3.078881
-1.534804 2.22051 3.092978
-1.543613 2.22104 3.09646
-1.558218 2.225303 3.086433
1.938545 2.251835 2.99489
1.928519 2.249722 2.994833
1.918419 2.249411 2.993454
1.907453 2.247469 2.994439
1.899101 2.248449 2.988669
1.890815 2.248613 2.984052
1.876419 2.243272 2.994972
1.864513 2.241501 2.997
1.863153 2.247645 2.973667
1.848815 2.242473 2.98557
1.840398 2.24427 2.978648
1.836415 2.248477 2.961902
1.827256 2.247995 2.95948
1.814666 2.244114 2.966993
1.77965 2.244124 2.950779
1.731039 2.241241 2.941968
1.727864 2.246911 2.921874
1.717889 2.245952 2.922632
1.709545 2.245947 2.917031
1.697697 2.244345 2.920043
1.68679 2.242572 2.922012
1.676756 2.241444 2.921785
1.66753 2.241779 2.918211
1.658436 2.240479 2.916942
1.644098 2.235307 2.928845
1.635813 2.235471 2.924228
1.625713 2.23516 2.922849
1.595736 2.231128 2.924307
1.58078 2.23438 2.908377
1.569872 2.232606 2.910347
1.558899 2.23165 2.911163
1.548924 2.230691 2.911921
1.540572 2.231671 2.906151
1.530604 2.229727 2.907078
1.518954 2.237024 2.879077
1.51066 2.238173 2.874292
1.503932 2.241093 2.861995
1.493957 2.240134 2.862752
1.484797 2.239651 2.860331
1.474014 2.23723 2.864436
1.463856 2.23675 2.862074
1.450575 2.231744 2.874902
1.438043 2.228032 2.883399
1.4305 2.230474 2.874281
1.423022 2.2321 2.866316
1.41218 2.22951 2.869437
1.405635 2.23195 2.860261
1.397967 2.23504 2.849007
1.387249 2.231802 2.854266
1.377149 2.231491 2.852887
1.368048 2.231178 2.851449
1.358947 2.230864 2.850011
1.349655 2.232016 2.845285
1.339687 2.230071 2.846211
1.331394 2.23122 2.841426
1.321419 2.230261 2.842183
1.311385 2.229133 2.841957
1.301344 2.228991 2.841562
1.293116 2.229323 2.837929
1.2814 2.226088 2.843246
1.273107 2.227237 2.838461
1.263947 2.226754 2.836039
1.253098 2.22515 2.838992
1.245555 2.227592 2.829874
1.237327 2.227924 2.826241
1.228036 2.229076 2.821515
1.21806 2.228117 2.822273
1.209709 2.229097 2.816503
1.201423 2.22926 2.811886
1.191506 2.22847 2.813627
1.179783 2.22622 2.818776
1.172371 2.227029 2.811964
1.161456 2.226241 2.813764
1.15148 2.225282 2.814522
1.145626 2.228847 2.80003
1.137208 2.230644 2.793108
1.123368 2.222879 2.813556
1.114885 2.225493 2.805482
1.104909 2.224534 2.806239
1.093501 2.220171 2.816813
1.084209 2.221322 2.812087
1.078289 2.225704 2.796442
1.068314 2.224745 2.797199
1.059212 2.224431 2.795762
1.050111 2.224118 2.794324
1.039196 2.22333 2.796125
1.029469 2.221075 2.801156
1.01862 2.219471 2.804108
1.007895 2.217218 2.809198
1.002542 2.223372 2.786101
0.9867051 2.226964 2.772198
0.9789711 2.230871 2.759792
0.9582711 2.22766 2.765639
0.9467965 2.224113 2.77506
0.9378195 2.223152 2.775759
0.9270946 2.220899 2.780849
0.9178032 2.222051 2.776122
0.910201 2.224324 2.76602
0.9010338 2.224828 2.76343
0.8912413 2.22339 2.767308
0.8818913 2.224372 2.761597
0.8714737 2.220992 2.771944
0.8629975 2.22262 2.764038
0.8550808 2.227007 2.748511
0.8497859 2.233331 2.726398
0.8411196 2.236424 2.715203
0.8325777 2.238869 2.706145
0.823469 2.239541 2.704539
0.8158668 2.241815 2.694437
0.80595 2.241025 2.696178
0.7967243 2.241359 2.692605
0.7865589 2.241865 2.690073
0.7774502 2.242537 2.688467
0.7668497 2.239637 2.695693
0.7568744 2.238678 2.696451
0.7463323 2.235946 2.70466
0.7365472 2.233522 2.708707
0.7267548 2.232083 2.712585
0.7167137 2.231941 2.71219
0.7053636 2.227747 2.723748
0.6971289 2.229064 2.719947
0.687212 2.228274 2.721688
0.6780449 2.228777 2.719098
0.6675102 2.22506 2.727476
0.6587781 2.22897 2.715129
0.6489856 2.227532 2.719007
0.6399428 2.227387 2.718553
0.629218 2.225134 2.723643
0.6213012 2.229521 2.708116
0.6115088 2.228083 2.711994
0.6022758 2.229403 2.708251
0.593924 2.230383 2.702481
0.5845081 2.232183 2.695618
0.5747157 2.230745 2.699497
0.5653583 2.232713 2.693617
0.556257 2.232399 2.692179
0.5464646 2.230961 2.696058
0.5367306 2.229692 2.700919
0.5270041 2.227436 2.70595
0.5164035 2.224535 2.713176
0.5065452 2.223914 2.715901
0.4967528 2.222476 2.71978
0.4878343 2.221683 2.721462
0.4779833 2.220076 2.724356
0.468626 2.222044 2.718477
0.4589579 2.219957 2.724492
0.4493483 2.21804 2.73149
0.4387478 2.215139 2.738716
0.4297049 2.214994 2.738262
0.4187278 2.208855 2.756229
0.4096192 2.209527 2.754623
0.4005105 2.2102 2.753017
0.3915334 2.209238 2.753716
0.3818653 2.207151 2.75973
0.372508 2.20912 2.753851
0.3620903 2.20574 2.764197
0.3529231 2.206243 2.761607
0.3438802 2.206098 2.761153
0.3341464 2.204829 2.766015
0.3158705 2.206004 2.761818
-0.1237956 2.21225 2.746239
-0.132407 2.210329 2.753178
-0.1411427 2.209057 2.757981
-0.1507522 2.207139 2.76498
-0.1593051 2.205387 2.772903
-0.2158293 2.208777 2.76552
-0.2259362 2.209452 2.763972
-0.2345476 2.207532 2.770911
-0.2441536 2.210797 2.76076
-0.2540119 2.210175 2.763485
-0.2716734 2.209095 2.769802
-0.2815316 2.208474 2.772527
-0.290516 2.208498 2.773058
-0.2988786 2.205281 2.78427
-0.3079288 2.206122 2.783648
-0.3164743 2.203385 2.79174
-0.3251514 2.202281 2.797527
-0.3351999 2.203125 2.796963
-0.3791927 2.198877 2.815553
-0.3894825 2.200031 2.810886
-0.4073341 2.200416 2.813914
-0.438284 2.206667 2.798421
-0.4473341 2.207508 2.797798
-0.5117968 2.206891 2.808852
-0.5209055 2.207563 2.807245
-0.5293925 2.204995 2.816321
-0.5379453 2.203243 2.824245
-0.546681 2.201971 2.829048
-0.5641597 2.200412 2.838485
-0.5732684 2.201084 2.836879
-0.5821283 2.20046 2.839545
-0.5924254 2.2026 2.834709
-0.6025982 2.204091 2.832009
-0.9995177 2.202697 2.930044
-1.010813 2.20484 2.925267
-1.022299 2.208448 2.9172
-1.032471 2.209939 2.9145
-1.065367 2.21735 2.899941
-1.076603 2.219661 2.896147
-1.084216 2.217738 2.903028
-1.127182 2.206248 2.956338
-1.263603 2.200132 3.021398
-1.271158 2.198378 3.029263
-1.286325 2.206051 3.009538
-1.296191 2.206415 3.012095
-1.305117 2.206608 3.013609
-1.312679 2.205839 3.021305
-1.320416 2.204564 3.026049
-1.320738 2.196312 3.054924
-1.329539 2.195857 3.058575
-1.337284 2.195568 3.063151
-1.348462 2.198048 3.060341
-1.354894 2.195643 3.070283
-1.362573 2.194536 3.076011
-1.370193 2.193599 3.082723
-1.375569 2.19136 3.09359
-1.380812 2.187487 3.106762
-1.390802 2.188499 3.107183
-1.397241 2.18708 3.116956
-1.403798 2.185323 3.124762
-1.410354 2.183566 3.132568
-1.416852 2.181978 3.141357
-1.424406 2.180223 3.149222
-1.434521 2.181884 3.147506
-1.445758 2.184195 3.143712
-1.457002 2.187492 3.13975
-1.476477 2.197289 3.114836
