-0.4829977 -0.3862382 4.724579
-0.5001998 -0.3805213 4.72962
-0.5022328 -0.3844204 4.717183
-0.5241907 -0.3918957 4.675916
1.044885 -1.230524 3.151118
1.033253 -1.228661 3.146405
1.022226 -1.227699 3.142598
0.8076615 -1.247252 2.932444
0.7972903 -1.246203 2.929389
0.7903084 -1.251469 2.906772
0.7802141 -1.255951 2.888117
-0.8907437 -0.4208343 4.333054
-0.8969859 -0.4197202 4.331715
-0.8963972 -0.4232744 4.322279
-0.9457643 -0.4227684 4.29071
-0.9546462 -0.4268519 4.274948
-0.9772567 -0.4252391 4.265193
-0.9878767 -0.4338994 4.232817
-0.999492 -0.4293828 4.238446
-1.008044 -0.4266373 4.240269
-1.017301 -0.4249644 4.241499
-1.024395 -0.4234847 4.242195
-1.043287 -0.4235568 4.229385
-1.039701 -0.4325225 4.205959
-1.056756 -0.4282438 4.208371
-1.053808 -0.432443 4.195616
-1.056939 -0.4343123 4.189236
-1.060871 -0.4348296 4.184734
-1.061838 -0.4368922 4.177819
-1.072651 -0.4337275 4.18157
-1.079647 -0.4324737 4.180873
-1.095592 -0.4389438 4.154229
-1.101834 -0.4378296 4.15289
-1.102016 -0.4438982 4.133755
-1.105998 -0.4454019 4.12941
-1.116008 -0.4413906 4.132361
-1.125412 -0.4382794 4.13622
-1.137879 -0.4333972 4.143884
-1.142565 -0.4337748 4.140024
-1.148857 -0.4336471 4.138842
-1.150528 -0.4345835 4.132412
-1.178057 -0.4404033 4.099819
-1.185151 -0.4389236 4.100515
-1.350247 -0.4496547 3.980744
-1.361273 -0.4486922 3.976938
-1.371498 -0.4490818 3.971253
-1.408381 -0.4530029 3.941282
-1.417785 -0.4498917 3.945141
-1.416099 -0.4554757 3.92965
-1.549797 -0.4521371 3.87013
-2.213985 0.1075708 5.117671
-2.217605 0.1090299 5.119333
0.173021 -0.2759785 5.728842
0.1770344 -0.2783411 5.72161
0.1331863 -0.2852537 5.65142
0.0974979 -0.2918096 5.586057
0.08712669 -0.290761 5.583001
-0.01664536 -0.311741 5.398846
-0.02088967 -0.3142346 5.388179
-0.03068881 -0.3171953 5.366426
-0.07258566 -0.3195279 5.319328
-0.1055666 -0.3146677 5.307596
-0.09647474 -0.3197551 5.297574
-0.09965347 -0.3204121 5.292429
-0.1050439 -0.3196636 5.289055
-0.09595208 -0.324751 5.279032
-0.09983514 -0.3242818 5.274374
-0.109551 -0.3231469 5.272069
-0.1119761 -0.3239436 5.266282
-0.1093717 -0.3262527 5.258941
-0.1626416 -0.3349071 5.181189
-0.1593329 -0.3383424 5.173362
-0.1689993 -0.336221 5.1709
-0.1700649 -0.3380576 5.165379
1.759299 -1.119262 4.116252
-0.2936281 -0.3549539 5.000707
-0.3182882 -0.3576954 4.969253
-0.3207628 -0.3594786 4.963623
-0.3327389 -0.3557259 4.964324
-0.3395383 -0.3549239 4.960842
-0.4385405 -0.3710515 4.827938
-0.442473 -0.3715688 4.823436
1.232598 -1.206696 3.398897
1.078652 -1.24121 3.177493
1.044966 -1.237422 3.165168
1.026551 -1.232103 3.167315
1.009724 -1.232143 3.155363
-0.6759034 -0.4112097 4.525449
-0.7025093 -0.4023816 4.534348
-0.7141914 -0.4015054 4.529791
0.826633 -1.254078 2.959305
0.8009106 -1.249481 2.954591
0.8010889 -1.254786 2.940384
0.7767755 -1.250243 2.935778
0.7654999 -1.25899 2.902652
-0.8713951 -0.4268204 4.346161
-0.8921689 -0.4208568 4.351627
-0.896904 -0.4200221 4.349004
-0.9008365 -0.4205394 4.344501
-0.9071282 -0.4204117 4.343319
-0.90649 -0.4229794 4.333727
-0.9471228 -0.4191505 4.319469
-0.9882994 -0.4243528 4.280068
-1.008979 -0.4299881 4.2508
-1.017433 -0.4274685 4.251231
-1.028344 -0.424078 4.256374
-1.030769 -0.4248747 4.250588
-1.070456 -0.4352091 4.198481
-1.072079 -0.4373577 4.190816
-1.103273 -0.4291332 4.194463
-1.115186 -0.4353119 4.170928
-1.110847 -0.4444173 4.14686
-1.113224 -0.4464263 4.139837
-1.120973 -0.4450328 4.139783
-1.141993 -0.4374051 4.14927
-1.182202 -0.4405448 4.116784
-1.186134 -0.4410621 4.112282
-1.192475 -0.4397221 4.112335
-1.194049 -0.4430831 4.103435
-1.415754 -0.452589 3.954339
-1.423602 -0.4509696 3.955677
-1.555663 -0.4542013 3.880822
-2.216755 0.1042667 5.115139
0.1627145 -0.2778857 5.732733
0.1609935 -0.2798085 5.726461
0.13276 -0.2870802 5.66533
0.1346107 -0.2892495 5.658632
0.1279096 -0.2886735 5.653757
0.1311199 -0.2918829 5.647323
0.1258278 -0.2913602 5.642557
0.1047394 -0.2943484 5.610676
0.100201 -0.2939655 5.605268
0.08771657 -0.2917373 5.602589
-0.03499587 -0.3115771 5.40686
-0.03919096 -0.3130842 5.396037
-0.03658659 -0.3153933 5.388696
-0.09703079 -0.3174893 5.324454
-0.09875178 -0.3194121 5.318182
-0.1106297 -0.3158853 5.31749
-0.116725 -0.3162094 5.313522
-0.1097463 -0.3201172 5.303877
-0.1100583 -0.3220935 5.297713
-0.1146949 -0.3214847 5.293696
-0.1056031 -0.326572 5.283674
-0.1059151 -0.3285483 5.27751
-0.1199556 -0.3248284 5.277352
-0.1223807 -0.325625 5.271565
-0.1205796 -0.3287808 5.265024
-0.1360291 -0.3250075 5.264758
-0.1741118 -0.338425 5.180951
-0.1877107 -0.336821 5.173986
-0.19792 -0.3415322 5.147461
-0.2057851 -0.3425668 5.138457
-0.2089638 -0.3432238 5.133313
-0.3451908 -0.354786 4.979091
-0.3498275 -0.3541772 4.975075
-0.3493859 -0.3562931 4.968268
-0.3511069 -0.3582159 4.961996
-0.4476839 -0.3735469 4.834878
-0.4949858 -0.3708094 4.805247
-0.600869 -0.3854539 4.679516
1.053632 -1.239559 3.199158
-0.7169763 -0.4004881 4.5481
-0.7224162 -0.400726 4.544883
0.7908473 -1.259649 2.951222
0.7642727 -1.254687 2.948543
0.7536526 -1.263348 2.916167
0.7471966 -1.264436 2.907271
0.6852118 -1.268982 2.852652
0.6580133 -1.267973 2.837644
-0.9060786 -0.4186511 4.367522
-0.9132882 -0.4195995 4.359269
-0.9156649 -0.4216085 4.352246
-0.9166321 -0.423671 4.345332
-0.993706 -0.4236803 4.295375
-1.002209 -0.4221471 4.295963
-0.9954937 -0.4292435 4.278918
-1.000278 -0.4293952 4.276451
-1.022937 -0.4265701 4.267931
-1.026166 -0.4282135 4.262944
-1.037027 -0.4238366 4.267931
-1.037192 -0.4272511 4.259137
-1.078271 -0.4326792 4.218344
-1.078337 -0.4363197 4.208158
-1.081614 -0.4367507 4.204407
-1.119184 -0.4346929 4.186343
-1.122412 -0.4363363 4.181355
-1.12651 -0.4402681 4.168061
-1.129689 -0.4409251 4.162917
-1.137536 -0.4393056 4.164255
-1.150775 -0.4369377 4.162219
-1.161801 -0.4359753 4.158412
-1.178401 -0.4425316 4.131018
-1.17927 -0.44482 4.122711
-1.188674 -0.4417089 4.126569
-1.194916 -0.4405948 4.12523
-1.286999 -0.4433441 4.066043
-1.295716 -0.4440131 4.059074
-1.370482 -0.4500513 4.003796
-1.37366 -0.4507083 3.998652
-1.381477 -0.4529552 3.988411
-1.392535 -0.4481265 3.996183
-1.393257 -0.4518531 3.985248
-1.430319 -0.4504695 3.969483
-1.482964 -0.4547922 3.932003
0.1111149 -0.2900013 5.65925
0.07480575 -0.2913354 5.613821
0.006788789 -0.3021191 5.505214
-0.07966325 -0.3194126 5.35615
-0.1239507 -0.3172338 5.32395
-0.1228566 -0.3284378 5.285632
-0.1405178 -0.3232589 5.287137
-0.1444503 -0.3237762 5.282634
-0.1382252 -0.3275443 5.273632
-0.2062083 -0.3352189 5.184629
-0.2204312 -0.3375674 5.165337
-0.2214474 -0.3384176 5.159658
-0.2261335 -0.3387952 5.155798
-0.2293124 -0.3394521 5.150654
-0.2324911 -0.3401091 5.14551
-0.2277736 -0.3435978 5.137792
1.631865 -1.150247 3.976572
1.608617 -1.143867 3.977487
-0.3672775 -0.3555912 4.979818
-0.4221671 -0.35722 4.926662
-0.4136819 -0.3636059 4.914653
-0.4469748 -0.360722 4.896758
-0.4494 -0.3615187 4.890971
-0.4540863 -0.3618963 4.887111
-0.4594765 -0.3611478 4.883737
-0.4635074 -0.3614391 4.880628
-0.5031616 -0.3712423 4.819102
1.223831 -1.211991 3.445813
-0.7249874 -0.3975064 4.570748
-0.7319832 -0.3962526 4.570051
-0.7359157 -0.3967699 4.565549
-0.7361295 -0.3989721 4.557993
0.6640731 -1.276975 2.846713
-0.9313406 -0.4087403 4.396446
-0.9315055 -0.4121548 4.387653
-0.9301632 -0.4158486 4.377576
-0.930377 -0.4180508 4.370019
-0.9305419 -0.4214653 4.361227
-0.9352767 -0.4206306 4.358603
-0.936949 -0.4237657 4.351095
-0.9753211 -0.4203558 4.334909
-0.9830706 -0.4189623 4.334855
-1.021821 -0.4211691 4.30232
-1.046136 -0.4188252 4.296634
-1.03942 -0.4259216 4.279589
-1.047218 -0.4233158 4.280771
-1.047285 -0.4269561 4.270585
-1.052823 -0.4269682 4.26876
-1.08856 -0.4319326 4.232577
-1.090183 -0.4340813 4.224912
-1.094115 -0.4345985 4.22041
-1.129571 -0.4337202 4.201969
-1.131948 -0.4357293 4.194946
-1.135127 -0.4363863 4.189802
-1.139813 -0.4367639 4.185942
-1.149217 -0.4336527 4.189801
-1.169714 -0.4332196 4.179668
-1.181494 -0.4321175 4.176504
-1.187736 -0.4310034 4.175165
-1.190965 -0.4326468 4.170177
-1.191031 -0.4362872 4.159992
-1.192654 -0.4384359 4.152327
-1.302974 -0.4411712 4.081079
-1.305448 -0.4429543 4.075449
-1.381016 -0.4476404 4.02205
-1.390455 -0.4520361 4.004145
-1.450454 -0.4444958 3.994381
-1.491189 -0.4540128 3.947094
-1.498381 -0.4523072 3.949183
-1.622497 -0.4573842 3.871598
-1.625628 -0.4592535 3.865217
0.1021366 -0.2890821 5.674984
0.1000549 -0.2917688 5.663784
-0.001404509 -0.305206 5.508728
-0.04960956 -0.3078661 5.451184
-0.1014036 -0.3129335 5.383726
-0.1063522 -0.314301 5.373545
-0.1045014 -0.3164704 5.366847
-0.1336511 -0.3200413 5.328748
-0.1310467 -0.3223504 5.321407
-0.1584754 -0.3239986 5.28958
-0.1515464 -0.3288928 5.280092
-0.2121061 -0.3334168 5.2069
-0.2073396 -0.3381179 5.197945
-0.2171042 -0.3357707 5.196876
-0.2282777 -0.3333701 5.195698
-0.2372887 -0.3311626 5.193986
-0.2439584 -0.3344528 5.177534
-0.2392408 -0.3379415 5.169816
-0.241666 -0.3387381 5.164029
-0.2398152 -0.3409076 5.157331
-0.245861 -0.3402453 5.153206
-0.246173 -0.3422215 5.147042
-0.4320146 -0.3585892 4.934089
-0.4308687 -0.3618313 4.926797
-0.4304271 -0.3639472 4.919991
-0.4503663 -0.3610032 4.91308
-0.4646034 -0.3568314 4.915708
-0.4685359 -0.3573487 4.911205
-0.4688479 -0.359325 4.905041
-0.4771051 -0.3572572 4.902687
-0.4759591 -0.3604993 4.895395
-0.4747639 -0.3627549 4.887947
-0.4765337 -0.3634653 4.88291
-0.5144671 -0.3713457 4.827657
-0.5206606 -0.3714439 4.825081
-0.5245436 -0.3709747 4.820423
-0.6088645 -0.3864146 4.709267
1.020584 -1.244177 3.22989
1.011293 -1.247813 3.210436
0.9506363 -1.247334 3.168739
0.9462935 -1.249602 3.159466
0.9183099 -1.244586 3.156678
-0.74699 -0.3920172 4.592003
-0.7576066 -0.3893044 4.592968
-0.7586721 -0.391141 4.587446
-0.7566248 -0.3937623 4.577962
0.6505402 -1.275749 2.875719
0.6522257 -1.281333 2.860228
-0.9475114 -0.4061155 4.414268
-0.949446 -0.4102405 4.400439
-0.9518225 -0.4122494 4.393417
-0.9498248 -0.4158571 4.38409
-0.9491866 -0.4184249 4.374498
-0.9478441 -0.4221188 4.364421
-0.9887403 -0.4214785 4.342762
-1.029966 -0.4254684 4.304597
-1.047725 -0.4200635 4.307494
-1.055573 -0.4184441 4.308832
-1.049611 -0.4254009 4.292429
-1.055099 -0.4244264 4.290448
-1.055264 -0.4278409 4.281655
-1.056986 -0.4297637 4.275383
-1.056298 -0.4335438 4.264555
-1.068783 -0.4313155 4.261877
-1.10568 -0.4265175 4.254906
-1.128554 -0.4280934 4.23775
-1.134042 -0.4271189 4.235769
-1.1453 -0.4332115 4.212984
-1.151641 -0.4318715 4.213037
-1.155573 -0.4323888 4.208536
-1.164977 -0.4292776 4.212394
-1.170764 -0.4389985 4.181249
-1.173943 -0.4396555 4.176105
-1.181791 -0.4380361 4.177443
-1.186477 -0.4384137 4.173584
-1.192719 -0.4372996 4.172244
-1.196652 -0.4378169 4.167742
-1.19988 -0.4394603 4.162755
-1.201503 -0.441609 4.15509
-1.210907 -0.4384979 4.158948
-1.24474 -0.4354709 4.148172
-1.415115 -0.4543984 4.000635
-1.423061 -0.4525532 4.003365
-1.427747 -0.4529307 3.999506
0.06894296 -0.2838462 5.684719
0.07903364 -0.2907375 5.670033
-0.003239908 -0.3069789 5.522529
-0.1273387 -0.3079616 5.400478
-0.1341382 -0.3071595 5.396996
-0.1409376 -0.3063576 5.393514
-0.1333037 -0.3101791 5.384619
-0.1235563 -0.3151803 5.375347
-0.1704685 -0.3225207 5.307883
-0.1765141 -0.3218584 5.303758
-0.1739098 -0.3241675 5.296418
-0.1663252 -0.3289756 5.287679
-0.2538375 -0.3319557 5.196538
-0.2585236 -0.3323333 5.192678
-0.2588356 -0.3343095 5.186514
-0.2576402 -0.3365652 5.179066
-0.2681584 -0.3340783 5.178638
-0.2618353 -0.3380723 5.168243
-0.2708955 -0.3368513 5.166687
-0.2646706 -0.3406194 5.157685
-0.2678495 -0.3412763 5.152541
-0.2681615 -0.3432526 5.146377
-0.2743054 -0.3423644 5.143645
-0.2709969 -0.3457997 5.135818
-0.3227706 -0.3390388 5.110963
-0.4538877 -0.3571922 4.942373
-0.4504808 -0.3608533 4.933154
-0.4485813 -0.3642351 4.92522
-0.4452231 -0.3666839 4.917236
-0.4550373 -0.3653232 4.916324
-0.4641464 -0.3628897 4.916004
-0.471044 -0.3618618 4.913915
-0.4756807 -0.361253 4.909899
-0.4818742 -0.3613513 4.907323
-0.4814326 -0.3634672 4.900517
-0.4875764 -0.362579 4.897785
-0.4886422 -0.3644155 4.892263
-0.4918209 -0.3650725 4.887119
-0.5272796 -0.3711698 4.837495
-0.5341774 -0.3701419 4.835406
-0.5396171 -0.3703798 4.832189
-0.5951486 -0.3808138 4.755283
-0.6370287 -0.3826912 4.717448
-0.6417148 -0.3830688 4.713588
-0.6449919 -0.3834999 4.709836
-0.6518895 -0.3824719 4.707747
-0.6779908 -0.3834924 4.686683
0.9963189 -1.242667 3.250912
0.9964485 -1.246759 3.237941
0.9987898 -1.252257 3.2232
-0.7624243 -0.3921861 4.59884
-0.764359 -0.3963111 4.585011
-0.8572958 -0.4034716 4.497756
0.6412516 -1.27203 2.915391
-0.9560968 -0.4060999 4.424432
-0.959325 -0.4077434 4.419444
-0.9586869 -0.4103112 4.409852
-0.9558867 -0.4152708 4.398647
-0.9583613 -0.4170539 4.393017
-0.9615402 -0.4177109 4.387873
-0.9625076 -0.4197734 4.380958
-0.9718133 -0.4168882 4.383424
-0.9803652 -0.4141427 4.385248
-0.9996356 -0.4198315 4.356088
-1.066566 -0.4165713 4.323551
-1.063569 -0.4219828 4.30956
-1.06529 -0.4239056 4.303288
-1.068519 -0.425549 4.298301
-1.070944 -0.4263457 4.292514
-1.067292 -0.431671 4.279274
-1.073584 -0.4315433 4.278091
-1.07596 -0.4335523 4.271069
-1.11135 -0.4290336 4.262813
-1.112972 -0.4311823 4.255148
-1.143578 -0.426512 4.249359
-1.159455 -0.4293416 4.232901
-1.165796 -0.4280016 4.232954
-1.168975 -0.4286586 4.22781
-1.179886 -0.4252681 4.232953
-1.178694 -0.4388968 4.192163
-1.189721 -0.4379343 4.188356
-1.212594 -0.4395103 4.171201
-1.221245 -0.4365388 4.174417
-1.227585 -0.4351988 4.174471
-1.233025 -0.4354367 4.171253
-1.516436 -0.4480442 3.983122
0.06153483 -0.2909391 5.676012
0.01065939 -0.2927317 5.616704
0.01074041 -0.2956116 5.604969
-0.009903189 -0.2915414 5.598544
-0.005938995 -0.2948905 5.591468
0.002350309 -0.2986258 5.583323
-0.02047618 -0.3061908 5.534829
-0.02722616 -0.3044023 5.53119
-0.04333129 -0.3007151 5.530175
-0.03645077 -0.304397 5.521922
-0.05471862 -0.3005166 5.52144
-0.08437298 -0.294239 5.513304
-0.1481949 -0.3035156 5.41552
-0.1500143 -0.3052125 5.41064
-0.1568137 -0.3044105 5.407158
-0.1715097 -0.3007768 5.40625
-0.1552255 -0.3075697 5.394139
-0.1505078 -0.3110585 5.386421
-0.2124653 -0.3312237 5.258939
-0.2094193 -0.3356487 5.244792
-0.2797584 -0.3335041 5.19137
-0.2923898 -0.3298376 5.191321
-0.2831998 -0.3351508 5.179906
-0.2893439 -0.3342626 5.177174
-0.2824146 -0.3391569 5.167686
-0.281973 -0.3412728 5.160879
-0.2786643 -0.3447081 5.153052
-0.2843667 -0.3459358 5.143515
-0.3254579 -0.3404461 5.1268
-0.4248695 -0.3561254 4.990204
-0.468863 -0.3568231 4.952746
-0.466914 -0.3592184 4.944655
-0.4657186 -0.3614741 4.937206
-0.4660306 -0.3634503 4.931042
-0.4692095 -0.3641073 4.925898
-0.4768607 -0.3629397 4.924451
-0.4837584 -0.3619119 4.922361
-0.4862818 -0.3624826 4.917967
-0.4917217 -0.3627205 4.91475
-0.4949005 -0.3633775 4.909606
-0.4959168 -0.3642276 4.903927
-0.4998493 -0.3647449 4.899426
-0.5016685 -0.3664418 4.894546
-0.5467275 -0.3689761 4.851566
-0.5521177 -0.3682276 4.848192
-0.5996057 -0.3829316 4.766084
-0.6073056 -0.3805517 4.765873
-0.5987223 -0.3871635 4.752471
-0.6551161 -0.3793387 4.732862
-0.6575907 -0.3811218 4.727232
-0.6586563 -0.3829583 4.72171
-0.6618353 -0.3836153 4.716566
-0.6651123 -0.3840464 4.712814
-0.6682913 -0.3847033 4.70767
-0.6767449 -0.3821837 4.708101
-0.688427 -0.3813075 4.703545
-0.6923596 -0.3818248 4.699043
0.9819131 -1.255102 3.238269
0.9569439 -1.250646 3.232913
0.9173596 -1.247634 3.213834
-0.7718301 -0.3956713 4.59946
-0.7713884 -0.3977873 4.592654
-0.8307024 -0.4010026 4.54088
-0.866586 -0.4045287 4.507325
-0.9658638 -0.4125479 4.419044
-0.9659795 -0.414976 4.410095
-0.9760388 -0.411951 4.413203
-0.9777597 -0.4138738 4.40693
-0.9832484 -0.4128994 4.404949
-0.9947653 -0.4086087 4.409185
-0.9927189 -0.4134287 4.398623
-1.010482 -0.419397 4.368178
0.3342905 -1.300326 2.665671
-1.073105 -0.4213758 4.323151
-1.076333 -0.4230192 4.318163
-1.080266 -0.4235364 4.313662
-1.084198 -0.4240537 4.30916
-1.08361 -0.427608 4.299725
-1.088509 -0.4301877 4.288308
-1.087921 -0.433742 4.278873
-1.098734 -0.4305773 4.282623
-1.108842 -0.4263401 4.286968
-1.112824 -0.4278438 4.282622
-1.127716 -0.4237583 4.2845
-1.146184 -0.4307992 4.253461
-1.156243 -0.4277742 4.25657
-1.16265 -0.4300746 4.246438
-1.165076 -0.4308713 4.240651
-1.170614 -0.4308833 4.238826
-1.172236 -0.433032 4.231162
-1.180035 -0.4304262 4.232343
-1.193834 -0.4419422 4.193743
-1.223686 -0.4374115 4.187312
-1.229224 -0.4374236 4.185487
-1.237874 -0.4344521 4.188704
-1.244215 -0.4331121 4.188757
-1.255076 -0.4287351 4.193744
-1.262171 -0.4272554 4.194439
-0.0467174 -0.2848466 5.609941
-0.03662653 -0.2917378 5.595255
-0.03700766 -0.30433 5.547723
-0.05230957 -0.299796 5.545908
-0.0569957 -0.3001736 5.542048
-0.06546672 -0.300308 5.532137
-0.08594591 -0.2950221 5.533426
-0.08837127 -0.2958187 5.527639
-0.09517069 -0.2950168 5.524158
-0.1012163 -0.2943544 5.520033
-0.1180256 -0.2895411 5.519503
-0.1082784 -0.2945423 5.510231
-0.1790789 -0.2999111 5.422091
-0.2360242 -0.3242427 5.282713
-0.2373524 -0.3270691 5.270871
-0.2365672 -0.3310751 5.258651
-0.287426 -0.3324125 5.208605
-0.3002397 -0.3348145 5.189421
-0.3007826 -0.3416469 5.165358
-0.3119562 -0.3392463 5.16418
-0.3071403 -0.3429609 5.155069
-0.3132843 -0.3420727 5.152338
-0.3388278 -0.3405823 5.134496
-0.3391396 -0.3425586 5.128332
-0.3430722 -0.3430759 5.12383
-0.4491679 -0.355525 4.992701
-0.4809534 -0.3529205 4.973521
-0.4803821 -0.3591287 4.953743
-0.4849384 -0.3635985 4.936913
-0.4910824 -0.3627103 4.934182
-0.4987338 -0.3615427 4.932734
-0.4989963 -0.3625325 4.926414
-0.5022734 -0.3629636 4.922662
-0.5054522 -0.3636206 4.917518
-0.5065178 -0.3654572 4.911996
-0.511204 -0.3658347 4.908136
-0.5181016 -0.3648069 4.906047
-0.5439255 -0.3691591 4.870463
-0.5602443 -0.3676741 4.86189
-0.5641768 -0.3681914 4.857388
-0.60919 -0.3811122 4.78091
-0.6147281 -0.3811242 4.779086
-0.6238372 -0.3786909 4.778767
-0.6152537 -0.3853027 4.765365
-0.6191862 -0.38582 4.760863
-0.6665692 -0.3802026 4.742966
-0.6675364 -0.3822651 4.736051
-0.67006 -0.3828359 4.731658
-0.674746 -0.3832135 4.727798
-0.6794811 -0.3823787 4.725174
0.9515392 -1.245196 3.278323
0.9643319 -1.256821 3.253824
0.9356442 -1.25068 3.251523
-0.8505424 -0.3957065 4.5616
-0.971761 -0.408547 4.442394
-0.9780033 -0.407433 4.441055
-0.9736957 -0.4126721 4.428565
-0.9836568 -0.409873 4.430281
-0.9915045 -0.4082536 4.431619
-0.9878523 -0.413579 4.418378
-0.9979116 -0.4105541 4.421486
-1.010231 -0.4049113 4.427601
-0.9998464 -0.414679 4.407658
-1.019919 -0.4190158 4.380376
0.3246061 -1.304877 2.678651
-1.102451 -0.4241157 4.315781
-1.102616 -0.4275302 4.306988
-1.106548 -0.4280475 4.302486
-1.112791 -0.4269334 4.301147
-1.119786 -0.4256796 4.30045
-1.121507 -0.4276024 4.294178
-1.131615 -0.4233651 4.298522
-1.13409 -0.4251483 4.292892
-1.139628 -0.4251603 4.291068
-1.142807 -0.4258173 4.285923
-1.144528 -0.42774 4.279651
-1.144595 -0.4313805 4.269465
-1.150935 -0.4300404 4.269519
-1.154868 -0.4305577 4.265017
-1.167335 -0.4256755 4.272681
-1.187716 -0.4206156 4.272577
-1.188635 -0.4238904 4.264426
-1.190257 -0.426039 4.256762
-1.193485 -0.4276825 4.251773
-1.191291 -0.431742 4.239661
-1.194422 -0.4336112 4.233281
-1.203237 -0.4340543 4.227705
-1.206415 -0.4347113 4.22256
-1.211953 -0.4347233 4.220736
-1.234876 -0.4350869 4.204816
-1.239562 -0.4354645 4.200956
-1.244346 -0.4356162 4.198489
-1.250687 -0.4342762 4.198543
-1.257781 -0.4327964 4.199238
-1.264875 -0.4313167 4.199934
-1.268808 -0.431834 4.195432
-1.271349 -0.4372575 4.179617
-1.276739 -0.436509 4.176243
-1.276806 -0.4401494 4.166057
-1.311656 -0.4401714 4.148523
-0.02282242 -0.2680904 5.723084
-0.002017074 -0.2779202 5.706039
0.005518897 -0.2815159 5.698537
-0.02163248 -0.2864958 5.652191
-0.04337305 -0.2803959 5.651822
-0.03226622 -0.2864369 5.642814
-0.0515006 -0.2824203 5.636497
-0.09240087 -0.2935322 5.553554
-0.09734955 -0.2948996 5.543373
-0.1112919 -0.2914056 5.541823
-0.112308 -0.2922557 5.536144
-0.101513 -0.3002731 5.520972
-0.1927433 -0.2993696 5.433965
-0.1988874 -0.2984814 5.431234
-0.1829039 -0.3229452 5.358777
-0.1950937 -0.3213947 5.351921
-0.2601259 -0.3240941 5.282425
-0.2749404 -0.3320628 5.240306
-0.2809862 -0.3314005 5.236182
-0.2878839 -0.3303725 5.234093
-0.3296305 -0.3249691 5.216628
-0.3286346 -0.3359472 5.179702
-0.3900499 -0.3514787 5.075204
-0.4022398 -0.3499282 5.068348
-0.4062705 -0.3502196 5.065238
-0.407942 -0.3511559 5.05881
-0.4129891 -0.3522974 5.050022
-0.4208541 -0.353332 5.041018
-0.4292589 -0.3520248 5.040213
-0.4319962 -0.3547977 5.028263
-0.439598 -0.3526437 5.026659
-0.4376985 -0.3560254 5.018724
-0.4604732 -0.3556285 5.001256
-0.4709913 -0.3531415 5.000828
-0.4749238 -0.3536589 4.996326
-0.484345 -0.3532017 4.989843
-0.4892936 -0.3545691 4.979662
-0.5082693 -0.3609357 4.946325
-0.5139716 -0.3621634 4.936787
-0.5164951 -0.3627342 4.932393
-0.5175607 -0.3645708 4.926871
-0.5178232 -0.3655606 4.92055
-0.5232629 -0.3657985 4.917333
-0.5264418 -0.3664555 4.912189
-0.5304725 -0.3667469 4.909079
-0.579201 -0.3666099 4.868998
-0.6280311 -0.37762 4.796967
-0.6319636 -0.3781373 4.792465
-0.6381076 -0.3772491 4.789733
-0.6324894 -0.3823158 4.778744
-0.6328012 -0.384292 4.77258
-0.6752212 -0.3838275 4.742944
-0.6829214 -0.3814476 4.742733
-0.6883612 -0.3816855 4.739515
0.9441014 -1.243646 3.311297
0.943737 -1.255783 3.273027
-0.8581116 -0.3948409 4.577442
-0.9891127 -0.410187 4.445745
-1.006872 -0.4047821 4.448642
-1.004072 -0.4097419 4.437436
-1.016391 -0.4040991 4.443551
-1.024993 -0.40234 4.445531
-1.012249 -0.4127527 4.422268
-1.021933 -0.4154842 4.408384
-1.023654 -0.417407 4.402112
-1.033075 -0.4169498 4.395629
0.318837 -1.311565 2.685792
-1.122536 -0.4171555 4.340522
-1.121947 -0.4207097 4.331088
-1.122915 -0.4227722 4.324173
-1.125291 -0.4247812 4.31715
-1.129322 -0.4250726 4.314041
-1.130945 -0.4272213 4.306376
-1.136433 -0.4262469 4.304395
-1.13745 -0.4292958 4.297637
-1.150215 -0.4329101 4.277216
-1.158063 -0.4312908 4.278554
-1.162094 -0.4315821 4.275445
-1.170645 -0.4288366 4.277268
-1.17774 -0.4273569 4.277965
-1.191076 -0.4247631 4.277321
-1.196631 -0.4274291 4.265154
-1.19755 -0.4307038 4.257004
-1.231664 -0.4335195 4.228485
-1.263286 -0.4318981 4.215939
-1.271182 -0.4290663 4.218513
-1.275213 -0.4293577 4.215403
-1.278343 -0.431227 4.209023
-1.280064 -0.4331498 4.202751
-1.277821 -0.4384216 4.189402
-1.284063 -0.4373075 4.188063
-1.318111 -0.4364827 4.16973
-1.320438 -0.4397041 4.161471
-1.498559 -0.4458651 4.047221
-1.500886 -0.4490864 4.038962
0.05770797 -0.2721962 5.818472
-0.01761555 -0.2793049 5.705164
0.001289715 -0.2879519 5.694974
-0.05089359 -0.2807426 5.666428
-0.0476338 -0.2829655 5.659837
-0.06223157 -0.2795576 5.657537
-0.1269887 -0.2925643 5.54234
-0.1190606 -0.2992624 5.528188
-0.1941859 -0.3020461 5.442197
-0.1908774 -0.3054814 5.434371
-0.2012974 -0.3032204 5.43255
-0.2170155 -0.3187853 5.36144
-0.2281891 -0.3163847 5.360262
-0.2277475 -0.3185006 5.353456
-0.2295172 -0.3192111 5.34842
-0.2598796 -0.3231804 5.307428
-0.2940934 -0.3305468 5.250199
-0.3088877 -0.3266872 5.250683
-0.3210776 -0.3251367 5.243827
-0.3322999 -0.3215236 5.243886
-0.3380023 -0.3227514 5.234348
-0.3728085 -0.3379367 5.153213
-0.3695 -0.341372 5.145386
-0.389884 -0.3454863 5.11302
-0.424277 -0.3497469 5.068918
-0.432994 -0.3504159 5.061949
-0.4401542 -0.3503778 5.053539
-0.4447105 -0.3548477 5.036709
-0.4464804 -0.3555581 5.031672
-0.447546 -0.3573947 5.026151
-0.4507247 -0.3580517 5.021007
-0.4627008 -0.354299 5.021707
-0.4674852 -0.3544506 5.01924
-0.4753503 -0.3554852 5.010236
-0.4829521 -0.3533312 5.008632
-0.4811509 -0.3564871 5.00209
-0.4909154 -0.3541399 5.001021
-0.5076789 -0.3597132 4.966993
-0.5345684 -0.3659019 4.925888
-0.5377471 -0.3665589 4.920743
-0.543187 -0.3667968 4.917526
-0.5449567 -0.3675073 4.912489
-0.5935208 -0.3661546 4.880121
-0.594537 -0.3670047 4.874443
-0.628948 -0.3761182 4.81892
-0.6328805 -0.3766354 4.814418
-0.6412855 -0.3753281 4.813613
-0.6430552 -0.3760386 4.808577
-0.6818404 -0.3835534 4.755358
-0.6836598 -0.3852502 4.750478
-0.6913109 -0.3840827 4.749031
-0.6975532 -0.3829685 4.747692
-0.7816433 -0.3935522 4.654435
-0.8703672 -0.3943528 4.589424
-0.8705808 -0.396555 4.581867
-0.9854905 -0.4068692 4.474185
-1.000663 -0.4086263 4.45832
-1.017063 -0.4042614 4.461482
-1.021749 -0.404639 4.457622
-1.031857 -0.4004017 4.461967
-1.038853 -0.3991479 4.46127
-1.029926 -0.4076498 4.442454
-1.042085 -0.4121644 4.422941
-1.047574 -0.4111899 4.420959
-1.049393 -0.4128868 4.41608
-1.134942 -0.4266023 4.321792
-1.146723 -0.4255002 4.318627
-1.145282 -0.4294199 4.307158
-1.208641 -0.4286052 4.273115
-1.219503 -0.4242282 4.278101
-1.218914 -0.4277824 4.268666
-1.243607 -0.4310552 4.246631
-1.243723 -0.4334833 4.237682
-1.249162 -0.4337212 4.234464
-1.260221 -0.4288924 4.242236
-1.277886 -0.4372853 4.20932
-1.281132 -0.4415827 4.19399
-1.289782 -0.4386113 4.197206
-1.29532 -0.4386233 4.195382
-1.324583 -0.4376468 4.179515
-1.326157 -0.4410079 4.170615
-1.339756 -0.4416026 4.162571
-1.371396 -0.4426351 4.139682
0.03901681 -0.2609679 5.864162
0.03255847 -0.2690316 5.824084
0.05287278 -0.2777319 5.814003
0.04541798 -0.2770161 5.809771
0.04440184 -0.2778663 5.804092
-0.03612508 -0.264207 5.768909
-0.06226566 -0.2844864 5.664797
-0.1055708 -0.2845667 5.61867
-0.2135528 -0.3027323 5.444532
-0.2392605 -0.3024577 5.418978
-0.2339887 -0.3148085 5.381141
-0.2346614 -0.3175488 5.370048
-0.2342196 -0.3196647 5.363242
-0.2352357 -0.3205149 5.357563
-0.25003 -0.3166552 5.358048
-0.26045 -0.3143943 5.356228
-0.2847981 -0.3151595 5.330938
-0.2803924 -0.3206245 5.317056
-0.3124434 -0.3281841 5.259293
-0.3222082 -0.3258369 5.258223
-0.3160325 -0.3305914 5.249377
-0.3431463 -0.3210891 5.255976
-0.4062999 -0.3411974 5.134863
-0.4263405 -0.3472017 5.097083
-0.4371211 -0.3457046 5.090335
-0.4427432 -0.3520111 5.067983
-0.4554729 -0.3481187 5.069326
-0.4608633 -0.3473701 5.065952
-0.4599483 -0.3554684 5.040761
-0.4707786 -0.3549578 5.03417
-0.4783804 -0.3528037 5.032566
-0.485902 -0.3557284 5.018148
-0.4956665 -0.3533812 5.017079
-0.4974857 -0.3550781 5.012199
-0.5000092 -0.3556488 5.007805
-0.5061532 -0.3547606 5.005074
-0.5148208 -0.3544432 4.997948
-0.5219006 -0.3594837 4.976724
-0.5498062 -0.3665227 4.92994
-0.5582111 -0.3652154 4.929135
-0.5628973 -0.365593 4.925275
-0.6031367 -0.3604689 4.906526
-0.6057095 -0.3620261 4.902288
-0.5996495 -0.3692087 4.884493
-0.6414487 -0.3739659 4.834923
-0.6425142 -0.3758025 4.829401
-0.6464468 -0.3763198 4.824899
-0.6536564 -0.3772681 4.816645
-0.6709111 -0.3817119 4.78958
0.9017929 -1.255766 3.310997
-0.7931098 -0.3856971 4.687538
-0.7940772 -0.3877596 4.680624
-0.7968144 -0.3905325 4.668673
-0.8274369 -0.3885162 4.652542
-0.8351864 -0.3871227 4.652488
-1.021783 -0.407369 4.465961
-1.032858 -0.4051942 4.463391
-1.056797 -0.4086066 4.440714
-1.062286 -0.4076322 4.438733
-1.064761 -0.4094153 4.433103
-1.065942 -0.41368 4.418631
-1.064599 -0.4173739 4.408554
-1.145441 -0.4166847 4.361809
-1.149374 -0.417202 4.357307
-1.148785 -0.4207562 4.347872
-1.146591 -0.4248157 4.33576
-1.169942 -0.4317823 4.303647
-1.181655 -0.4270398 4.310668
-1.182524 -0.4293281 4.302361
-1.188865 -0.4279881 4.302415
-1.194683 -0.4338428 4.282848
-1.205612 -0.4331062 4.277649
-1.266198 -0.4198129 4.2784
-1.260187 -0.4279821 4.260761
-1.26412 -0.4284993 4.256259
-1.286801 -0.4440988 4.201897
-1.295452 -0.4411274 4.205113
-1.300187 -0.4402927 4.20249
-1.308034 -0.4386732 4.203828
-1.312819 -0.4388249 4.201361
-1.320782 -0.4396336 4.193749
-1.335019 -0.4354618 4.196377
-1.336593 -0.4388229 4.187476
-1.338216 -0.4409716 4.179811
-1.372379 -0.4447737 4.151449
-1.375558 -0.4454306 4.146305
-1.381096 -0.4454426 4.14448
-1.383473 -0.4474517 4.137458
-1.461872 -0.4433118 4.106841
-0.04297294 -0.2618134 5.794607
-0.04685597 -0.2613443 5.789948
-0.04928115 -0.262141 5.784162
-0.03751887 -0.2680958 5.775905
-0.05282079 -0.2635619 5.77409
-0.1220039 -0.2829318 5.630171
-0.1166309 -0.2863343 5.623203
-0.1184008 -0.2870447 5.618167
-0.1670961 -0.2863765 5.568666
-0.1783074 -0.2984581 5.514543
-0.1836977 -0.2977096 5.511169
-0.1847634 -0.2995461 5.505647
-0.2529941 -0.312532 5.389484
-0.2544204 -0.3151326 5.379034
-0.2547324 -0.3171088 5.372869
-0.2528816 -0.3192783 5.366171
-0.2662179 -0.3166845 5.365528
-0.2708546 -0.3160756 5.361512
-0.276245 -0.3153271 5.358138
-0.3349051 -0.3232329 5.277011
-0.3315966 -0.3266681 5.269185
-0.3449817 -0.322862 5.269778
-0.3387568 -0.3266301 5.260775
-0.4081841 -0.3417579 5.149901
-0.4135745 -0.3410094 5.146527
-0.4190143 -0.3412473 5.14331
-0.4207841 -0.3419578 5.138273
-0.4210961 -0.343934 5.132109
-0.4452513 -0.3565241 5.070693
-0.472824 -0.3475598 5.073756
-0.4762833 -0.3540594 5.05087
-0.4900787 -0.3520035 5.046691
-0.4962227 -0.3511153 5.043959
-0.5203255 -0.3535447 5.014648
-0.5300586 -0.3550639 5.002
-0.5353687 -0.359394 4.985813
-0.5371384 -0.3601045 4.980776
-0.6178489 -0.3569112 4.924299
-0.6181609 -0.3588874 4.918135
-0.6162612 -0.3622693 4.910201
-0.6087922 -0.3695053 4.892513
-0.6061391 -0.3730267 4.883936
-0.6172812 -0.3744924 4.871181
-0.6341397 -0.3706655 4.870807
-0.6359096 -0.3713759 4.865771
-0.6435608 -0.3702084 4.864324
-0.6438728 -0.3721846 4.85816
-0.6412197 -0.3757061 4.849583
-0.6520985 -0.3739831 4.844227
-0.6732017 -0.3726498 4.833188
-0.8201768 -0.3840034 4.689662
-0.8189814 -0.386259 4.682214
-0.8436737 -0.387333 4.661258
-0.8469021 -0.3889764 4.656271
-0.9172599 -0.3938833 4.590349
-1.036873 -0.4094279 4.467385
-1.065004 -0.4029745 4.467227
-1.077587 -0.4005204 4.465941
-1.078554 -0.4025828 4.459027
-1.080177 -0.4047315 4.451362
-1.076623 -0.4098309 4.439514
-1.073069 -0.4149303 4.427667
-1.069417 -0.4202556 4.414426
-1.078134 -0.4209245 4.407457
-1.084474 -0.4195846 4.407511
-1.094534 -0.4165596 4.410619
-1.106363 -0.4142452 4.408691
-1.155846 -0.418366 4.367093
-1.159025 -0.4190231 4.361948
-1.15457 -0.4257004 4.34683
-1.180935 -0.4299095 4.318366
-1.243407 -0.4219536 4.304052
-1.26633 -0.4223171 4.288132
-1.277388 -0.4174883 4.295904
-1.271983 -0.4247572 4.277358
-1.299449 -0.4405083 4.220529
-1.308148 -0.4363246 4.224981
-1.311376 -0.437968 4.219994
-1.319928 -0.4352225 4.221817
-1.323157 -0.4368659 4.21683
-1.333363 -0.4324027 4.222567
-1.332774 -0.435957 4.213131
-1.344488 -0.4312144 4.220153
-1.349977 -0.43024 4.218172
-1.351649 -0.4333751 4.210663
-1.354828 -0.4340321 4.205519
-1.381963 -0.4429543 4.166276
-1.385241 -0.4433854 4.162524
-1.387617 -0.4453944 4.155502
0.0034425 -0.2713129 5.832454
-0.0511168 -0.2639139 5.797964
-0.05354191 -0.2647105 5.792177
-0.05395211 -0.2664609 5.787405
-0.04214022 -0.2714294 5.778992
-0.09682087 -0.2848069 5.671028
-0.09960692 -0.2863675 5.660314
-0.1049484 -0.2868313 5.655704
-0.1366352 -0.282254 5.63621
-0.134441 -0.2863134 5.624098
-0.1738802 -0.2895169 5.572288
-0.1887121 -0.3001394 5.519826
-0.191891 -0.3007964 5.514682
-0.1965276 -0.3001876 5.510666
-0.2054404 -0.298206 5.507562
-0.2050968 -0.3000961 5.502148
-0.2090293 -0.3006133 5.497646
-0.2100457 -0.3014635 5.491968
-0.2585311 -0.3099661 5.416682
-0.2662342 -0.3167605 5.384209
-0.2680039 -0.3174709 5.379173
-0.2690695 -0.3193075 5.373651
-0.2867307 -0.3141286 5.375156
-0.2877468 -0.3149787 5.369477
-0.2931371 -0.3142302 5.366103
-0.2999365 -0.3134282 5.362621
-0.3068344 -0.3124003 5.360532
-0.4198853 -0.350132 5.131764
-0.4680212 -0.3421762 5.115589
-0.4647127 -0.3456114 5.107762
-0.5140155 -0.3484405 5.055196
-0.5261423 -0.3546226 5.025184
-0.5257005 -0.3567386 5.018377
-0.5463936 -0.3536549 5.012109
-0.5562563 -0.3510818 5.012432
-0.5580262 -0.3517922 5.007396
-0.552506 -0.356633 4.997799
-0.5556849 -0.35729 4.992655
-0.5604692 -0.3574417 4.990188
-0.5688247 -0.3551479 4.989226
-0.6204867 -0.3573321 4.93998
-0.6207986 -0.3593084 4.933815
-0.6188991 -0.3626901 4.925881
-0.6214226 -0.3632608 4.921487
-0.6266832 -0.3666046 4.905142
-0.6285024 -0.3683015 4.900263
-0.6273071 -0.3705571 4.892814
-0.6254075 -0.3739388 4.88488
-0.630798 -0.3731903 4.881505
-0.6436258 -0.3690721 4.884241
-0.6424801 -0.3723141 4.876949
-0.6442498 -0.3730246 4.871913
-0.6526548 -0.3717173 4.871108
-0.6551781 -0.3722881 4.866714
-0.6503134 -0.377215 4.856367
-0.6594226 -0.3747816 4.856048
-0.7037947 -0.381096 4.80224
-0.7227352 -0.3799559 4.790666
-0.8279599 -0.3853399 4.697948
-0.8296315 -0.3862763 4.691519
-0.8551755 -0.3869846 4.672598
-0.8598616 -0.3873622 4.668738
-0.9265501 -0.3949404 4.599918
-0.931285 -0.3941057 4.597294
-1.048522 -0.4076413 4.481354
-1.072132 -0.4042248 4.476262
-1.089137 -0.3989596 4.478517
-1.090957 -0.4006565 4.473637
-1.094987 -0.4009479 4.470528
-1.098166 -0.4016049 4.465384
-1.094514 -0.4069302 4.452143
-1.089502 -0.4132954 4.439167
-1.090371 -0.4155838 4.430861
-1.088325 -0.4204038 4.420298
-1.090046 -0.4223266 4.414025
-1.099302 -0.4184549 4.416335
-1.110917 -0.4139383 4.421964
-1.117258 -0.4125983 4.422017
-1.122796 -0.4126103 4.420192
-1.123665 -0.4148987 4.411885
-1.121619 -0.4197187 4.401322
-1.1256 -0.4190236 4.398056
-1.139101 -0.4198443 4.38862
-1.166955 -0.4189213 4.372862
-1.172493 -0.4189333 4.371037
-1.178735 -0.4178192 4.369698
-1.240444 -0.430095 4.2984
-1.320863 -0.4363745 4.233428
-1.328055 -0.434669 4.235516
-1.333544 -0.4336945 4.233535
-1.339884 -0.4323545 4.233588
-1.343866 -0.4338582 4.229243
-1.355726 -0.4276775 4.238893
-1.362722 -0.4264237 4.238196
-1.363591 -0.428712 4.229889
-1.368376 -0.4288637 4.227422
-1.385239 -0.4386087 4.192627
-1.393202 -0.4394173 4.185016
-1.398838 -0.4392034 4.184584
-1.398053 -0.4432094 4.172363
-0.06317564 -0.2638776 5.80716
-0.05996529 -0.267087 5.800727
-0.06314424 -0.2677439 5.795582
-0.06139156 -0.2696875 5.790277
-0.05310208 -0.2734228 5.782132
-0.05475949 -0.2808795 5.753783
-0.05009067 -0.2831558 5.747301
-0.1232468 -0.2765067 5.695823
-0.1109789 -0.2901113 5.658683
-0.1298699 -0.2879848 5.646952
-0.1401917 -0.2859497 5.64374
-0.1433212 -0.2856202 5.638439
-0.1472537 -0.2861375 5.633937
-0.152644 -0.285389 5.630563
-0.2098629 -0.2950158 5.539046
-0.2216425 -0.291715 5.536962
-0.2263288 -0.2920926 5.533102
-0.2251822 -0.2931359 5.526889
-0.2262477 -0.2949724 5.521368
-0.2330472 -0.2941704 5.517885
-0.2297874 -0.2963933 5.511295
-0.227986 -0.2995492 5.504753
-0.2383565 -0.2963018 5.502777
-0.2896137 -0.3128853 5.394857
-0.2950042 -0.3121368 5.391483
-0.2989367 -0.3126541 5.386981
-0.310864 -0.3101137 5.386446
-0.3140427 -0.3107707 5.381301
-0.3186796 -0.3101619 5.377285
-0.3212029 -0.3107326 5.372891
-0.3251354 -0.3112499 5.36839
-0.3204179 -0.3147387 5.360671
-0.4515366 -0.3376687 5.161978
-0.52496 -0.34778 5.068678
-0.5282372 -0.3482111 5.064927
-0.5340407 -0.3583872 5.024519
-0.5569453 -0.353898 5.020021
-0.5638429 -0.3528701 5.017932
-0.5656621 -0.354567 5.013052
-0.5644667 -0.3568226 5.005603
-0.5662366 -0.3575331 5.000567
-0.5695137 -0.3579642 4.996816
-0.5792782 -0.355617 4.995746
-0.641031 -0.3509099 4.961185
-0.6376241 -0.354571 4.951966
-0.6350692 -0.3578666 4.944782
-0.6338738 -0.3601222 4.937334
-0.6349394 -0.3619588 4.931812
-0.6403793 -0.3621967 4.928594
-0.6384302 -0.3645921 4.920503
-0.6365306 -0.3679738 4.912569
-0.6420193 -0.3669994 4.910587
-0.6401197 -0.3703811 4.902653
-0.6418895 -0.3710916 4.897617
-0.645822 -0.3716089 4.893115
-0.65865 -0.3674906 4.895851
-0.657504 -0.3707327 4.888558
-0.6644506 -0.3684925 4.887705
-0.6683831 -0.3690098 4.883203
-0.6761326 -0.3676163 4.883148
-0.6719722 -0.3714171 4.873287
-0.6774119 -0.371655 4.87007
-0.6762165 -0.3739106 4.862621
-0.6794936 -0.3743417 4.858869
-0.6813129 -0.3760386 4.85399
-0.7319271 -0.3812389 4.798843
-0.7373175 -0.3804904 4.795469
-0.8696424 -0.3850911 4.68635
-0.8706099 -0.3871536 4.679436
-0.8709217 -0.3891298 4.673271
-0.8770657 -0.3882416 4.670539
-0.9234046 -0.3970135 4.613401
-1.006118 -0.4059831 4.530751
-1.020814 -0.4023494 4.529843
-1.027319 -0.4044239 4.521104
-1.060171 -0.4058548 4.495322
-1.098788 -0.4007807 4.483158
-1.103474 -0.4011583 4.479298
-1.10454 -0.4029949 4.473776
-1.104705 -0.4064094 4.464983
-1.102609 -0.410243 4.454264
-1.10433 -0.4121658 4.447992
-1.107607 -0.4125968 4.44424
-1.110082 -0.4143799 4.43861
-1.137249 -0.417237 4.412024
-1.262611 -0.4258216 4.311942
-1.327433 -0.4373128 4.244606
-1.335231 -0.4347069 4.245787
-1.338459 -0.4363503 4.2408
-1.351894 -0.4335306 4.241549
-1.40675 -0.434249 4.206919
-1.416253 -0.4309119 4.21217
-1.44906 -0.447127 4.150731
-1.463297 -0.4429552 4.153358
-1.469736 -0.4413893 4.154804
-1.47452 -0.441541 4.152338
-1.48086 -0.440201 4.152391
-1.487955 -0.4387212 4.153087
-0.07992079 -0.264219 5.812498
-0.07168074 -0.2689407 5.80451
-0.06842095 -0.2711636 5.797919
-0.0723535 -0.2716809 5.793417
-0.08605296 -0.2768265 5.756663
-0.1335532 -0.2784139 5.699714
-0.1228069 -0.285219 5.685778
-0.1245768 -0.2859294 5.680742
-0.1162557 -0.2935311 5.661019
-0.1673074 -0.2830436 5.6471
-0.1704863 -0.2837006 5.641956
-0.1729602 -0.2832849 5.637405
-0.1618534 -0.289326 5.628398
-0.1671455 -0.2888034 5.623631
-0.1625261 -0.2920662 5.617306
-0.2152522 -0.2916893 5.564695
-0.213058 -0.2957488 5.552583
-0.2206112 -0.2948071 5.549744
-0.2244943 -0.294338 5.545085
-0.2284268 -0.2948552 5.540583
-0.2409599 -0.2914147 5.539141
-0.2502828 -0.2911835 5.531265
-0.258852 -0.2910919 5.522747
-0.2509239 -0.29779 5.508595
-0.2751102 -0.304315 5.459836
-0.2689834 -0.3078572 5.452225
-0.2606452 -0.3128049 5.442845
-0.2789618 -0.3077121 5.443599
-0.276505 -0.3107818 5.437808
-0.3021317 -0.3133871 5.400518
-0.3025418 -0.3151375 5.395747
-0.3057208 -0.3157944 5.390603
-0.3168945 -0.3133937 5.389425
-0.3222848 -0.3126453 5.386051
-0.3262173 -0.3131625 5.381549
-0.3294449 -0.3126072 5.377641
-0.334131 -0.3129848 5.373781
-0.3286597 -0.3166132 5.36542
-0.3297253 -0.3184497 5.359899
-0.3379827 -0.3163819 5.357544
-0.4846845 -0.3428195 5.138215
-0.4872078 -0.3433902 5.133821
-0.5373626 -0.3458537 5.083289
-0.5427528 -0.3451052 5.079915
-0.5431345 -0.3598961 5.031303
-0.5757722 -0.3569261 5.014158
-0.5797047 -0.3574434 5.009656
-0.5844395 -0.3566086 5.007032
-0.5905836 -0.3557204 5.004301
-0.6004465 -0.3531473 5.004624
-0.6460625 -0.3559937 4.959501
-0.6456209 -0.3581097 4.952694
-0.642214 -0.3617708 4.943476
-0.6418217 -0.3648732 4.936826
-0.6435916 -0.3655837 4.931789
-0.6454108 -0.3672806 4.92691
-0.6449692 -0.3693965 4.920104
-0.6540783 -0.3669631 4.919784
-0.655848 -0.3676736 4.914748
-0.6634994 -0.366506 4.913301
-0.6615999 -0.3698878 4.905366
-0.6729205 -0.3660488 4.906817
-0.6732324 -0.3680251 4.900653
-0.6823417 -0.3655917 4.900334
-0.6841608 -0.3672886 4.895454
-0.697693 -0.3620442 4.898676
-0.6995122 -0.3637411 4.893796
-0.7065082 -0.3624873 4.893099
-0.7023476 -0.3662881 4.883238
-0.7535018 -0.3691466 4.83629
-0.7449183 -0.3757584 4.822889
-0.7547812 -0.3731853 4.823212
-0.7521279 -0.3767068 4.814635
-0.7568629 -0.375872 4.812011
-0.8808179 -0.3892868 4.681934
-0.8855529 -0.388452 4.67931
-0.8866186 -0.3902886 4.673788
-1.013424 -0.4019288 4.553993
-1.023697 -0.4011061 4.549545
-1.076997 -0.4011174 4.513473
-1.078062 -0.402954 4.507951
-1.084518 -0.4040421 4.499055
-1.086239 -0.4059648 4.492783
-1.104097 -0.4003341 4.497073
-1.108127 -0.4006255 4.493963
-1.112912 -0.4007772 4.491497
-1.114633 -0.4026999 4.485224
-1.114093 -0.4050418 4.477025
-1.1128 -0.4097221 4.467104
-1.122319 -0.4090391 4.462014
-1.128562 -0.407925 4.460674
-1.271393 -0.4253542 4.32489
-1.336919 -0.4357193 4.25804
-1.344111 -0.4340137 4.260128
-1.47701 -0.4412014 4.166468
-1.481041 -0.4414927 4.163359
-1.488938 -0.4386609 4.165933
-1.494574 -0.4384471 4.165501
-1.537423 -0.4467845 4.118591
-1.552578 -0.4458875 4.113069
-1.65646 -0.4545862 4.038216
-1.661245 -0.454738 4.035749
-0.0802489 -0.2662712 5.825015
-0.0919797 -0.2641827 5.821694
-0.08308439 -0.2688183 5.814456
-0.08123356 -0.2709877 5.807758
-0.09467056 -0.2751435 5.777325
-0.09709574 -0.2759402 5.771538
-0.1222951 -0.274141 5.749363
-0.1155129 -0.277597 5.742503
-0.1215272 -0.2808011 5.7268
-0.142107 -0.2822647 5.698299
-0.1431231 -0.2831149 5.692621
-0.1441887 -0.2849514 5.687099
-0.1401753 -0.2873141 5.679866
-0.1241369 -0.2946417 5.670697
-0.1394883 -0.2910942 5.669039
-0.1547904 -0.2865602 5.667224
-0.1594764 -0.2869378 5.663364
-0.1697488 -0.2839163 5.659995
-0.1758441 -0.2842404 5.656027
-0.1847567 -0.2822588 5.652923
-0.1843638 -0.2831624 5.647353
-0.1840204 -0.2850525 5.641939
-0.1750268 -0.289914 5.633308
-0.1789593 -0.2904313 5.628807
-0.1735861 -0.2938337 5.621839
-0.178454 -0.2980811 5.599924
-0.2123701 -0.296951 5.570779
-0.2141398 -0.2976615 5.565743
-0.2144518 -0.2996377 5.559578
-0.214059 -0.3005413 5.554008
-0.2237251 -0.2984201 5.551546
-0.2298204 -0.2987442 5.547578
-0.2365704 -0.2969557 5.54394
-0.2520201 -0.2931823 5.543674
-0.2710093 -0.2908298 5.533336
-0.2720254 -0.2916799 5.527658
-0.2658986 -0.2952221 5.520047
-0.267718 -0.296919 5.515168
-0.2666208 -0.2989487 5.509111
-0.2797317 -0.3076485 5.462923
-0.275014 -0.3111373 5.455204
-0.2638088 -0.3174042 5.444804
-0.2843367 -0.310906 5.447328
-0.2803727 -0.3142551 5.440252
-0.2824545 -0.3169418 5.429052
-0.3237101 -0.3126678 5.404624
-0.3283467 -0.312059 5.400608
-0.3337371 -0.3113104 5.397234
-0.3348027 -0.313147 5.391712
-0.3409467 -0.3122588 5.38898
-0.3419629 -0.3131089 5.383302
-0.346649 -0.3134865 5.379442
-0.3433892 -0.3157094 5.372852
-0.3452086 -0.3174063 5.367972
-0.3505988 -0.3166578 5.364598
-0.3552357 -0.3160489 5.360582
-0.3638543 -0.3169439 5.352221
-0.3670819 -0.3163885 5.348312
-0.3738814 -0.3155865 5.34483
-0.373538 -0.3174765 5.339417
-0.3760613 -0.3180473 5.335022
-0.4702183 -0.3487314 5.150247
-0.4981031 -0.3417433 5.147147
-0.4998729 -0.3424537 5.14211
-0.5111448 -0.3398272 5.142325
-0.502004 -0.3461269 5.131067
-0.516847 -0.3410549 5.132787
-0.5149962 -0.3432244 5.126089
-0.5464069 -0.3463763 5.089917
-0.5740989 -0.351213 5.05069
-0.5886163 -0.3528838 5.035575
-0.5911398 -0.3534546 5.031181
-0.5935649 -0.3542513 5.025394
-0.5953841 -0.3559482 5.020515
-0.5964004 -0.3567983 5.014836
-0.5996775 -0.3572294 5.011085
-0.6065751 -0.3562015 5.008996
-0.6164379 -0.3536283 5.009318
-0.6499797 -0.3604534 4.962102
-0.6466712 -0.3638887 4.954276
-0.6541433 -0.3658268 4.939702
-0.6529974 -0.3690689 4.932409
-0.6570281 -0.3693603 4.9293
-0.6683487 -0.3655214 4.930751
-0.6722812 -0.3660387 4.926249
-0.6763121 -0.3663301 4.92314
-0.6758703 -0.368446 4.916333
-0.6828168 -0.3662057 4.91548
-0.6824245 -0.3693082 4.90883
-0.6915336 -0.3668747 4.908511
-0.6933035 -0.3675852 4.903475
-0.7607449 -0.3728249 4.836376
-0.7735764 -0.3800797 4.80577
-0.8975453 -0.3847753 4.698692
-0.8985125 -0.3868379 4.691778
-0.8981203 -0.3899402 4.685128
-0.9784076 -0.3959145 4.609344
-1.030249 -0.3971915 4.572144
-1.037459 -0.3981399 4.56389
-1.046274 -0.398583 4.558314
-1.040459 -0.4041015 4.544539
-1.090201 -0.3978391 4.529962
-1.088106 -0.4016727 4.519242
-1.090843 -0.4066444 4.506212
-1.150582 -0.4050898 4.471587
-1.263298 -0.4238611 4.349634
-1.265184 -0.4291983 4.334569
-1.268363 -0.4298553 4.329424
-1.273901 -0.4298673 4.3276
-0.2499368 -1.350079 2.448703
-1.485137 -0.4406478 4.180167
-1.489167 -0.4409392 4.177058
-1.497867 -0.4367554 4.18151
-1.502651 -0.4369071 4.179043
-1.662375 -0.4554382 4.050145
-1.665407 -0.4575334 4.042372
-0.08280354 -0.2625965 5.860143
-0.09768108 -0.2628325 5.841179
-0.09874666 -0.2646691 5.835658
-0.1127753 -0.2744449 5.782397
-0.1166583 -0.2739758 5.777739
-0.1394151 -0.2687261 5.771692
-0.1390717 -0.2706161 5.766278
-0.1315854 -0.2751982 5.758932
-0.1347149 -0.2748687 5.753632
-0.1293417 -0.2782712 5.746664
-0.1247222 -0.281534 5.740338
-0.1271475 -0.2823307 5.734551
-0.1331932 -0.2816684 5.730427
-0.1377984 -0.2849259 5.714833
-0.1459574 -0.283084 5.711086
-0.157033 -0.2809092 5.708516
-0.1516599 -0.2843117 5.701548
-0.1548387 -0.2849687 5.696404
-0.1566085 -0.2856792 5.691368
-0.1458622 -0.2924842 5.677432
-0.1640806 -0.2876173 5.676793
-0.1747632 -0.2863462 5.668653
-0.1779419 -0.2870032 5.663508
-0.1890173 -0.2848284 5.660938
-0.1950631 -0.2841661 5.656814
-0.2018132 -0.2823777 5.653175
-0.2064992 -0.2827553 5.649316
-0.2025353 -0.2861043 5.64224
-0.204305 -0.2868148 5.637203
-0.2010453 -0.2890377 5.630613
-0.2088467 -0.295606 5.599533
-0.2259042 -0.2983029 5.570762
-0.2198269 -0.3028315 5.563308
-0.2151092 -0.3063202 5.55559
-0.2268887 -0.3030194 5.553505
-0.239422 -0.2995788 5.552063
-0.2462215 -0.2987768 5.548581
-0.2666512 -0.2925045 5.549713
-0.2994419 -0.3064446 5.470672
-0.2969357 -0.3085279 5.464724
-0.2849769 -0.3149345 5.453681
-0.3018844 -0.3098954 5.454544
-0.2971666 -0.3133841 5.446826
-0.2996901 -0.3139548 5.442431
-0.2928593 -0.3186231 5.434336
-0.3298387 -0.315722 5.408996
-0.348828 -0.3133694 5.398658
-0.3534647 -0.3127606 5.394641
-0.3567418 -0.3131917 5.39089
-0.3556446 -0.3152214 5.384834
-0.3566609 -0.3160715 5.379156
-0.3605934 -0.3165888 5.374653
-0.3646241 -0.3168802 5.371544
-0.3814507 -0.3147208 5.360672
-0.3782403 -0.3179302 5.354238
-0.3857439 -0.316002 5.351242
-0.3882672 -0.3165728 5.346848
-0.3937071 -0.3168107 5.34363
-0.3998511 -0.3159225 5.340899
-0.4052415 -0.315174 5.337525
-0.4087811 -0.3165949 5.327452
-0.4484873 -0.33436 5.2349
-0.4517644 -0.334791 5.231149
-0.4607752 -0.3325835 5.229437
-0.512177 -0.3407533 5.155328
-0.5111294 -0.3437695 5.149429
-0.5215981 -0.3402962 5.148845
-0.5197968 -0.3434521 5.142303
-0.5310193 -0.3398391 5.142362
-0.5386707 -0.3386715 5.140914
-0.566331 -0.3473746 5.090109
-0.5788186 -0.3543206 5.055169
-0.5776726 -0.3575627 5.047877
-0.6144211 -0.3498053 5.040436
-0.6168463 -0.350602 5.03465
-0.6194192 -0.3521592 5.030412
-0.6153569 -0.3557341 5.021944
-0.6222547 -0.3547062 5.019855
-0.6277431 -0.3537318 5.017873
-0.6583688 -0.3608897 4.969481
-0.6600898 -0.3628125 4.963208
-0.6589926 -0.3648422 4.957152
-0.6600581 -0.3666788 4.95163
-0.6720342 -0.3629261 4.952331
-0.6745577 -0.3634969 4.947937
-0.6778348 -0.3639279 4.944185
-0.6906628 -0.3598096 4.946921
-0.6939399 -0.3602407 4.943169
-0.698626 -0.3606183 4.93931
-0.7019031 -0.3610494 4.935558
-0.7058843 -0.3603544 4.932292
-0.7047386 -0.3635964 4.925
-0.7175664 -0.3594782 4.927735
-0.7149133 -0.3629996 4.919159
-0.7211555 -0.3618855 4.917819
-0.7221717 -0.3627356 4.912141
-0.7283651 -0.3628339 4.909566
-0.7235492 -0.3665484 4.900455
-0.7260239 -0.3683316 4.894825
-0.787272 -0.373473 4.830302
-0.7890911 -0.3751699 4.825422
-0.7871916 -0.3785517 4.817488
-0.7889614 -0.3792622 4.812451
-0.799448 -0.3806416 4.800446
-0.8049366 -0.3796672 4.798465
-0.8148977 -0.3768682 4.80018
-0.8121462 -0.3806156 4.790211
-0.8480437 -0.3754226 4.779656
-0.9151909 -0.3835388 4.7073
-0.9102281 -0.3886916 4.695561
-0.9810943 -0.395123 4.62626
-0.9859769 -0.3950488 4.625185
-0.985437 -0.3973906 4.616986
-1.039588 -0.3970363 4.58295
-1.049108 -0.3963533 4.577859
-1.05255 -0.4001989 4.565314
-1.050552 -0.4038065 4.555987
-1.053829 -0.4042376 4.552236
-1.146584 -0.4075284 4.483036
-1.325528 -0.4241655 4.32806
-0.3999932 -1.365955 2.35237
-1.493312 -0.4388819 4.195102
-1.508468 -0.4379849 4.189579
-1.564212 -0.4480433 4.13414
-1.666586 -0.4570213 4.058003
-1.668914 -0.4602427 4.049745
-0.0810993 -0.2629485 5.884017
-0.09595961 -0.2605305 5.875395
-0.1069368 -0.2585817 5.871433
-0.1072975 -0.2593456 5.866505
-0.09832118 -0.2668611 5.847532
-0.1043668 -0.2661988 5.843408
-0.09974744 -0.2694616 5.837082
-0.1308306 -0.2727599 5.787313
-0.1347631 -0.2732772 5.782811
-0.1603868 -0.2667082 5.777784
-0.1664327 -0.2660459 5.77366
-0.1603554 -0.2705745 5.766206
-0.1543268 -0.2738908 5.759988
-0.1489538 -0.2772933 5.75302
-0.1456939 -0.2795162 5.74643
-0.1417299 -0.2828652 5.739354
-0.1485294 -0.2820632 5.735872
-0.1783653 -0.2796552 5.70968
-0.1822979 -0.2801726 5.705178
-0.1812007 -0.2822024 5.699122
-0.1837242 -0.2827731 5.694728
-0.1886728 -0.2841405 5.684548
-0.1918518 -0.2847975 5.679404
-0.1943257 -0.2843818 5.674853
-0.199012 -0.2847594 5.670993
-0.2071709 -0.2829175 5.667247
-0.2068276 -0.2848075 5.661833
-0.2149866 -0.2829657 5.658086
-0.224653 -0.2808444 5.655624
-0.2178219 -0.2855127 5.647528
-0.2253751 -0.284571 5.644689
-0.2314207 -0.2839087 5.640564
-0.2381708 -0.2821203 5.636926
-0.2270639 -0.2881613 5.627918
-0.2441071 -0.2973784 5.577227
-0.238734 -0.300781 5.570259
-0.23477 -0.3041299 5.563183
-0.24519 -0.301869 5.561363
-0.249073 -0.3013999 5.556705
